# .PCD v0.7 - Point Cloud Data file format
VERSION 0.7
FIELDS x y z
SIZE 4 4 4
TYPE F F F
COUNT 1 1 1
WIDTH 1350
HEIGHT 1
VIEWPOINT 0 0 0 1 0 0 0
POINTS 1350
DATA ascii
1.36 -0.039999999 0.0099999998
1.36 -0.039999999 0.11
1.36 -0.039999999 0.20999999
1.36 -0.039999999 0.31
1.36 -0.039999999 0.41
1.36 -0.039999999 0.50999999
1.36 -0.039999999 0.61000001
1.36 -0.039999999 0.70999998
1.36 -0.039999999 0.81
1.36 -0.039999999 0.91000003
1.36 -0.039999999 1.01
1.36 -0.039999999 1.11
1.36 -0.039999999 1.21
1.36 -0.039999999 1.3099999
1.36 -0.039999999 1.41
1.36 -0.039999999 1.51
1.36 -0.039999999 1.61
1.36 -0.039999999 1.71
1.36 -0.039999999 1.8099999
1.36 -0.039999999 1.91
1.36 -0.039999999 2.01
1.36 -0.039999999 2.1099999
1.36 -0.039999999 2.21
1.36 -0.039999999 2.3099999
1.36 -0.039999999 2.4100001
1.36 -0.039999999 2.51
1.36 -0.039999999 2.6099999
1.36 -0.039999999 2.71
1.36 -0.039999999 2.8099999
1.36 -0.039999999 2.9100001
1.36 0.059999999 0.0099999998
1.36 0.059999999 0.11
1.36 0.059999999 0.20999999
1.36 0.059999999 0.31
1.36 0.059999999 0.41
1.36 0.059999999 0.50999999
1.36 0.059999999 0.61000001
1.36 0.059999999 0.70999998
1.36 0.059999999 0.81
1.36 0.059999999 0.91000003
1.36 0.059999999 1.01
1.36 0.059999999 1.11
1.36 0.059999999 1.21
1.36 0.059999999 1.3099999
1.36 0.059999999 1.41
1.36 0.059999999 1.51
1.36 0.059999999 1.61
1.36 0.059999999 1.71
1.36 0.059999999 1.8099999
1.36 0.059999999 1.91
1.36 0.059999999 2.01
1.36 0.059999999 2.1099999
1.36 0.059999999 2.21
1.36 0.059999999 2.3099999
1.36 0.059999999 2.4100001
1.36 0.059999999 2.51
1.36 0.059999999 2.6099999
1.36 0.059999999 2.71
1.36 0.059999999 2.8099999
1.36 0.059999999 2.9100001
1.36 0.16 0.0099999998
1.36 0.16 0.11
1.36 0.16 0.20999999
1.36 0.16 0.31
1.36 0.16 0.41
1.36 0.16 0.50999999
1.36 0.16 0.61000001
1.36 0.16 0.70999998
1.36 0.16 0.81
1.36 0.16 0.91000003
1.36 0.16 1.01
1.36 0.16 1.11
1.36 0.16 1.21
1.36 0.16 1.3099999
1.36 0.16 1.41
1.36 0.16 1.51
1.36 0.16 1.61
1.36 0.16 1.71
1.36 0.16 1.8099999
1.36 0.16 1.91
1.36 0.16 2.01
1.36 0.16 2.1099999
1.36 0.16 2.21
1.36 0.16 2.3099999
1.36 0.16 2.4100001
1.36 0.16 2.51
1.36 0.16 2.6099999
1.36 0.16 2.71
1.36 0.16 2.8099999
1.36 0.16 2.9100001
1.46 -0.039999999 0.0099999998
1.46 -0.039999999 0.11
1.46 -0.039999999 0.20999999
1.46 -0.039999999 0.31
1.46 -0.039999999 0.41
1.46 -0.039999999 0.50999999
1.46 -0.039999999 0.61000001
1.46 -0.039999999 0.70999998
1.46 -0.039999999 0.81
1.46 -0.039999999 0.91000003
1.46 -0.039999999 1.01
1.46 -0.039999999 1.11
1.46 -0.039999999 1.21
1.46 -0.039999999 1.3099999
1.46 -0.039999999 1.41
1.46 -0.039999999 1.51
1.46 -0.039999999 1.61
1.46 -0.039999999 1.71
1.46 -0.039999999 1.8099999
1.46 -0.039999999 1.91
1.46 -0.039999999 2.01
1.46 -0.039999999 2.1099999
1.46 -0.039999999 2.21
1.46 -0.039999999 2.3099999
1.46 -0.039999999 2.4100001
1.46 -0.039999999 2.51
1.46 -0.039999999 2.6099999
1.46 -0.039999999 2.71
1.46 -0.039999999 2.8099999
1.46 -0.039999999 2.9100001
1.46 0.059999999 0.0099999998
1.46 0.059999999 0.11
1.46 0.059999999 0.20999999
1.46 0.059999999 0.31
1.46 0.059999999 0.41
1.46 0.059999999 0.50999999
1.46 0.059999999 0.61000001
1.46 0.059999999 0.70999998
1.46 0.059999999 0.81
1.46 0.059999999 0.91000003
1.46 0.059999999 1.01
1.46 0.059999999 1.11
1.46 0.059999999 1.21
1.46 0.059999999 1.3099999
1.46 0.059999999 1.41
1.46 0.059999999 1.51
1.46 0.059999999 1.61
1.46 0.059999999 1.71
1.46 0.059999999 1.8099999
1.46 0.059999999 1.91
1.46 0.059999999 2.01
1.46 0.059999999 2.1099999
1.46 0.059999999 2.21
1.46 0.059999999 2.3099999
1.46 0.059999999 2.4100001
1.46 0.059999999 2.51
1.46 0.059999999 2.6099999
1.46 0.059999999 2.71
1.46 0.059999999 2.8099999
1.46 0.059999999 2.9100001
1.46 0.16 0.0099999998
1.46 0.16 0.11
1.46 0.16 0.20999999
1.46 0.16 0.31
1.46 0.16 0.41
1.46 0.16 0.50999999
1.46 0.16 0.61000001
1.46 0.16 0.70999998
1.46 0.16 0.81
1.46 0.16 0.91000003
1.46 0.16 1.01
1.46 0.16 1.11
1.46 0.16 1.21
1.46 0.16 1.3099999
1.46 0.16 1.41
1.46 0.16 1.51
1.46 0.16 1.61
1.46 0.16 1.71
1.46 0.16 1.8099999
1.46 0.16 1.91
1.46 0.16 2.01
1.46 0.16 2.1099999
1.46 0.16 2.21
1.46 0.16 2.3099999
1.46 0.16 2.4100001
1.46 0.16 2.51
1.46 0.16 2.6099999
1.46 0.16 2.71
1.46 0.16 2.8099999
1.46 0.16 2.9100001
1.5599999 -0.039999999 0.0099999998
1.5599999 -0.039999999 0.11
1.5599999 -0.039999999 0.20999999
1.5599999 -0.039999999 0.31
1.5599999 -0.039999999 0.41
1.5599999 -0.039999999 0.50999999
1.5599999 -0.039999999 0.61000001
1.5599999 -0.039999999 0.70999998
1.5599999 -0.039999999 0.81
1.5599999 -0.039999999 0.91000003
1.5599999 -0.039999999 1.01
1.5599999 -0.039999999 1.11
1.5599999 -0.039999999 1.21
1.5599999 -0.039999999 1.3099999
1.5599999 -0.039999999 1.41
1.5599999 -0.039999999 1.51
1.5599999 -0.039999999 1.61
1.5599999 -0.039999999 1.71
1.5599999 -0.039999999 1.8099999
1.5599999 -0.039999999 1.91
1.5599999 -0.039999999 2.01
1.5599999 -0.039999999 2.1099999
1.5599999 -0.039999999 2.21
1.5599999 -0.039999999 2.3099999
1.5599999 -0.039999999 2.4100001
1.5599999 -0.039999999 2.51
1.5599999 -0.039999999 2.6099999
1.5599999 -0.039999999 2.71
1.5599999 -0.039999999 2.8099999
1.5599999 -0.039999999 2.9100001
1.5599999 0.059999999 0.0099999998
1.5599999 0.059999999 0.11
1.5599999 0.059999999 0.20999999
1.5599999 0.059999999 0.31
1.5599999 0.059999999 0.41
1.5599999 0.059999999 0.50999999
1.5599999 0.059999999 0.61000001
1.5599999 0.059999999 0.70999998
1.5599999 0.059999999 0.81
1.5599999 0.059999999 0.91000003
1.5599999 0.059999999 1.01
1.5599999 0.059999999 1.11
1.5599999 0.059999999 1.21
1.5599999 0.059999999 1.3099999
1.5599999 0.059999999 1.41
1.5599999 0.059999999 1.51
1.5599999 0.059999999 1.61
1.5599999 0.059999999 1.71
1.5599999 0.059999999 1.8099999
1.5599999 0.059999999 1.91
1.5599999 0.059999999 2.01
1.5599999 0.059999999 2.1099999
1.5599999 0.059999999 2.21
1.5599999 0.059999999 2.3099999
1.5599999 0.059999999 2.4100001
1.5599999 0.059999999 2.51
1.5599999 0.059999999 2.6099999
1.5599999 0.059999999 2.71
1.5599999 0.059999999 2.8099999
1.5599999 0.059999999 2.9100001
1.5599999 0.16 0.0099999998
1.5599999 0.16 0.11
1.5599999 0.16 0.20999999
1.5599999 0.16 0.31
1.5599999 0.16 0.41
1.5599999 0.16 0.50999999
1.5599999 0.16 0.61000001
1.5599999 0.16 0.70999998
1.5599999 0.16 0.81
1.5599999 0.16 0.91000003
1.5599999 0.16 1.01
1.5599999 0.16 1.11
1.5599999 0.16 1.21
1.5599999 0.16 1.3099999
1.5599999 0.16 1.41
1.5599999 0.16 1.51
1.5599999 0.16 1.61
1.5599999 0.16 1.71
1.5599999 0.16 1.8099999
1.5599999 0.16 1.91
1.5599999 0.16 2.01
1.5599999 0.16 2.1099999
1.5599999 0.16 2.21
1.5599999 0.16 2.3099999
1.5599999 0.16 2.4100001
1.5599999 0.16 2.51
1.5599999 0.16 2.6099999
1.5599999 0.16 2.71
1.5599999 0.16 2.8099999
1.5599999 0.16 2.9100001
-0.039999999 -1.84 0.0099999998
-0.039999999 -1.84 0.11
-0.039999999 -1.84 0.20999999
-0.039999999 -1.84 0.31
-0.039999999 -1.84 0.41
-0.039999999 -1.84 0.50999999
-0.039999999 -1.84 0.61000001
-0.039999999 -1.84 0.70999998
-0.039999999 -1.84 0.81
-0.039999999 -1.84 0.91000003
-0.039999999 -1.84 1.01
-0.039999999 -1.84 1.11
-0.039999999 -1.84 1.21
-0.039999999 -1.84 1.3099999
-0.039999999 -1.84 1.41
-0.039999999 -1.84 1.51
-0.039999999 -1.84 1.61
-0.039999999 -1.84 1.71
-0.039999999 -1.84 1.8099999
-0.039999999 -1.84 1.91
-0.039999999 -1.84 2.01
-0.039999999 -1.84 2.1099999
-0.039999999 -1.84 2.21
-0.039999999 -1.84 2.3099999
-0.039999999 -1.84 2.4100001
-0.039999999 -1.84 2.51
-0.039999999 -1.84 2.6099999
-0.039999999 -1.84 2.71
-0.039999999 -1.84 2.8099999
-0.039999999 -1.84 2.9100001
-0.039999999 -1.74 0.0099999998
-0.039999999 -1.74 0.11
-0.039999999 -1.74 0.20999999
-0.039999999 -1.74 0.31
-0.039999999 -1.74 0.41
-0.039999999 -1.74 0.50999999
-0.039999999 -1.74 0.61000001
-0.039999999 -1.74 0.70999998
-0.039999999 -1.74 0.81
-0.039999999 -1.74 0.91000003
-0.039999999 -1.74 1.01
-0.039999999 -1.74 1.11
-0.039999999 -1.74 1.21
-0.039999999 -1.74 1.3099999
-0.039999999 -1.74 1.41
-0.039999999 -1.74 1.51
-0.039999999 -1.74 1.61
-0.039999999 -1.74 1.71
-0.039999999 -1.74 1.8099999
-0.039999999 -1.74 1.91
-0.039999999 -1.74 2.01
-0.039999999 -1.74 2.1099999
-0.039999999 -1.74 2.21
-0.039999999 -1.74 2.3099999
-0.039999999 -1.74 2.4100001
-0.039999999 -1.74 2.51
-0.039999999 -1.74 2.6099999
-0.039999999 -1.74 2.71
-0.039999999 -1.74 2.8099999
-0.039999999 -1.74 2.9100001
-0.039999999 -1.64 0.0099999998
-0.039999999 -1.64 0.11
-0.039999999 -1.64 0.20999999
-0.039999999 -1.64 0.31
-0.039999999 -1.64 0.41
-0.039999999 -1.64 0.50999999
-0.039999999 -1.64 0.61000001
-0.039999999 -1.64 0.70999998
-0.039999999 -1.64 0.81
-0.039999999 -1.64 0.91000003
-0.039999999 -1.64 1.01
-0.039999999 -1.64 1.11
-0.039999999 -1.64 1.21
-0.039999999 -1.64 1.3099999
-0.039999999 -1.64 1.41
-0.039999999 -1.64 1.51
-0.039999999 -1.64 1.61
-0.039999999 -1.64 1.71
-0.039999999 -1.64 1.8099999
-0.039999999 -1.64 1.91
-0.039999999 -1.64 2.01
-0.039999999 -1.64 2.1099999
-0.039999999 -1.64 2.21
-0.039999999 -1.64 2.3099999
-0.039999999 -1.64 2.4100001
-0.039999999 -1.64 2.51
-0.039999999 -1.64 2.6099999
-0.039999999 -1.64 2.71
-0.039999999 -1.64 2.8099999
-0.039999999 -1.64 2.9100001
0.059999999 -1.84 0.0099999998
0.059999999 -1.84 0.11
0.059999999 -1.84 0.20999999
0.059999999 -1.84 0.31
0.059999999 -1.84 0.41
0.059999999 -1.84 0.50999999
0.059999999 -1.84 0.61000001
0.059999999 -1.84 0.70999998
0.059999999 -1.84 0.81
0.059999999 -1.84 0.91000003
0.059999999 -1.84 1.01
0.059999999 -1.84 1.11
0.059999999 -1.84 1.21
0.059999999 -1.84 1.3099999
0.059999999 -1.84 1.41
0.059999999 -1.84 1.51
0.059999999 -1.84 1.61
0.059999999 -1.84 1.71
0.059999999 -1.84 1.8099999
0.059999999 -1.84 1.91
0.059999999 -1.84 2.01
0.059999999 -1.84 2.1099999
0.059999999 -1.84 2.21
0.059999999 -1.84 2.3099999
0.059999999 -1.84 2.4100001
0.059999999 -1.84 2.51
0.059999999 -1.84 2.6099999
0.059999999 -1.84 2.71
0.059999999 -1.84 2.8099999
0.059999999 -1.84 2.9100001
0.059999999 -1.74 0.0099999998
0.059999999 -1.74 0.11
0.059999999 -1.74 0.20999999
0.059999999 -1.74 0.31
0.059999999 -1.74 0.41
0.059999999 -1.74 0.50999999
0.059999999 -1.74 0.61000001
0.059999999 -1.74 0.70999998
0.059999999 -1.74 0.81
0.059999999 -1.74 0.91000003
0.059999999 -1.74 1.01
0.059999999 -1.74 1.11
0.059999999 -1.74 1.21
0.059999999 -1.74 1.3099999
0.059999999 -1.74 1.41
0.059999999 -1.74 1.51
0.059999999 -1.74 1.61
0.059999999 -1.74 1.71
0.059999999 -1.74 1.8099999
0.059999999 -1.74 1.91
0.059999999 -1.74 2.01
0.059999999 -1.74 2.1099999
0.059999999 -1.74 2.21
0.059999999 -1.74 2.3099999
0.059999999 -1.74 2.4100001
0.059999999 -1.74 2.51
0.059999999 -1.74 2.6099999
0.059999999 -1.74 2.71
0.059999999 -1.74 2.8099999
0.059999999 -1.74 2.9100001
0.059999999 -1.64 0.0099999998
0.059999999 -1.64 0.11
0.059999999 -1.64 0.20999999
0.059999999 -1.64 0.31
0.059999999 -1.64 0.41
0.059999999 -1.64 0.50999999
0.059999999 -1.64 0.61000001
0.059999999 -1.64 0.70999998
0.059999999 -1.64 0.81
0.059999999 -1.64 0.91000003
0.059999999 -1.64 1.01
0.059999999 -1.64 1.11
0.059999999 -1.64 1.21
0.059999999 -1.64 1.3099999
0.059999999 -1.64 1.41
0.059999999 -1.64 1.51
0.059999999 -1.64 1.61
0.059999999 -1.64 1.71
0.059999999 -1.64 1.8099999
0.059999999 -1.64 1.91
0.059999999 -1.64 2.01
0.059999999 -1.64 2.1099999
0.059999999 -1.64 2.21
0.059999999 -1.64 2.3099999
0.059999999 -1.64 2.4100001
0.059999999 -1.64 2.51
0.059999999 -1.64 2.6099999
0.059999999 -1.64 2.71
0.059999999 -1.64 2.8099999
0.059999999 -1.64 2.9100001
0.16 -1.84 0.0099999998
0.16 -1.84 0.11
0.16 -1.84 0.20999999
0.16 -1.84 0.31
0.16 -1.84 0.41
0.16 -1.84 0.50999999
0.16 -1.84 0.61000001
0.16 -1.84 0.70999998
0.16 -1.84 0.81
0.16 -1.84 0.91000003
0.16 -1.84 1.01
0.16 -1.84 1.11
0.16 -1.84 1.21
0.16 -1.84 1.3099999
0.16 -1.84 1.41
0.16 -1.84 1.51
0.16 -1.84 1.61
0.16 -1.84 1.71
0.16 -1.84 1.8099999
0.16 -1.84 1.91
0.16 -1.84 2.01
0.16 -1.84 2.1099999
0.16 -1.84 2.21
0.16 -1.84 2.3099999
0.16 -1.84 2.4100001
0.16 -1.84 2.51
0.16 -1.84 2.6099999
0.16 -1.84 2.71
0.16 -1.84 2.8099999
0.16 -1.84 2.9100001
0.16 -1.74 0.0099999998
0.16 -1.74 0.11
0.16 -1.74 0.20999999
0.16 -1.74 0.31
0.16 -1.74 0.41
0.16 -1.74 0.50999999
0.16 -1.74 0.61000001
0.16 -1.74 0.70999998
0.16 -1.74 0.81
0.16 -1.74 0.91000003
0.16 -1.74 1.01
0.16 -1.74 1.11
0.16 -1.74 1.21
0.16 -1.74 1.3099999
0.16 -1.74 1.41
0.16 -1.74 1.51
0.16 -1.74 1.61
0.16 -1.74 1.71
0.16 -1.74 1.8099999
0.16 -1.74 1.91
0.16 -1.74 2.01
0.16 -1.74 2.1099999
0.16 -1.74 2.21
0.16 -1.74 2.3099999
0.16 -1.74 2.4100001
0.16 -1.74 2.51
0.16 -1.74 2.6099999
0.16 -1.74 2.71
0.16 -1.74 2.8099999
0.16 -1.74 2.9100001
0.16 -1.64 0.0099999998
0.16 -1.64 0.11
0.16 -1.64 0.20999999
0.16 -1.64 0.31
0.16 -1.64 0.41
0.16 -1.64 0.50999999
0.16 -1.64 0.61000001
0.16 -1.64 0.70999998
0.16 -1.64 0.81
0.16 -1.64 0.91000003
0.16 -1.64 1.01
0.16 -1.64 1.11
0.16 -1.64 1.21
0.16 -1.64 1.3099999
0.16 -1.64 1.41
0.16 -1.64 1.51
0.16 -1.64 1.61
0.16 -1.64 1.71
0.16 -1.64 1.8099999
0.16 -1.64 1.91
0.16 -1.64 2.01
0.16 -1.64 2.1099999
0.16 -1.64 2.21
0.16 -1.64 2.3099999
0.16 -1.64 2.4100001
0.16 -1.64 2.51
0.16 -1.64 2.6099999
0.16 -1.64 2.71
0.16 -1.64 2.8099999
0.16 -1.64 2.9100001
-1.54 -0.039999999 0.0099999998
-1.54 -0.039999999 0.11
-1.54 -0.039999999 0.20999999
-1.54 -0.039999999 0.31
-1.54 -0.039999999 0.41
-1.54 -0.039999999 0.50999999
-1.54 -0.039999999 0.61000001
-1.54 -0.039999999 0.70999998
-1.54 -0.039999999 0.81
-1.54 -0.039999999 0.91000003
-1.54 -0.039999999 1.01
-1.54 -0.039999999 1.11
-1.54 -0.039999999 1.21
-1.54 -0.039999999 1.3099999
-1.54 -0.039999999 1.41
-1.54 -0.039999999 1.51
-1.54 -0.039999999 1.61
-1.54 -0.039999999 1.71
-1.54 -0.039999999 1.8099999
-1.54 -0.039999999 1.91
-1.54 -0.039999999 2.01
-1.54 -0.039999999 2.1099999
-1.54 -0.039999999 2.21
-1.54 -0.039999999 2.3099999
-1.54 -0.039999999 2.4100001
-1.54 -0.039999999 2.51
-1.54 -0.039999999 2.6099999
-1.54 -0.039999999 2.71
-1.54 -0.039999999 2.8099999
-1.54 -0.039999999 2.9100001
-1.54 0.059999999 0.0099999998
-1.54 0.059999999 0.11
-1.54 0.059999999 0.20999999
-1.54 0.059999999 0.31
-1.54 0.059999999 0.41
-1.54 0.059999999 0.50999999
-1.54 0.059999999 0.61000001
-1.54 0.059999999 0.70999998
-1.54 0.059999999 0.81
-1.54 0.059999999 0.91000003
-1.54 0.059999999 1.01
-1.54 0.059999999 1.11
-1.54 0.059999999 1.21
-1.54 0.059999999 1.3099999
-1.54 0.059999999 1.41
-1.54 0.059999999 1.51
-1.54 0.059999999 1.61
-1.54 0.059999999 1.71
-1.54 0.059999999 1.8099999
-1.54 0.059999999 1.91
-1.54 0.059999999 2.01
-1.54 0.059999999 2.1099999
-1.54 0.059999999 2.21
-1.54 0.059999999 2.3099999
-1.54 0.059999999 2.4100001
-1.54 0.059999999 2.51
-1.54 0.059999999 2.6099999
-1.54 0.059999999 2.71
-1.54 0.059999999 2.8099999
-1.54 0.059999999 2.9100001
-1.54 0.16 0.0099999998
-1.54 0.16 0.11
-1.54 0.16 0.20999999
-1.54 0.16 0.31
-1.54 0.16 0.41
-1.54 0.16 0.50999999
-1.54 0.16 0.61000001
-1.54 0.16 0.70999998
-1.54 0.16 0.81
-1.54 0.16 0.91000003
-1.54 0.16 1.01
-1.54 0.16 1.11
-1.54 0.16 1.21
-1.54 0.16 1.3099999
-1.54 0.16 1.41
-1.54 0.16 1.51
-1.54 0.16 1.61
-1.54 0.16 1.71
-1.54 0.16 1.8099999
-1.54 0.16 1.91
-1.54 0.16 2.01
-1.54 0.16 2.1099999
-1.54 0.16 2.21
-1.54 0.16 2.3099999
-1.54 0.16 2.4100001
-1.54 0.16 2.51
-1.54 0.16 2.6099999
-1.54 0.16 2.71
-1.54 0.16 2.8099999
-1.54 0.16 2.9100001
-1.4400001 -0.039999999 0.0099999998
-1.4400001 -0.039999999 0.11
-1.4400001 -0.039999999 0.20999999
-1.4400001 -0.039999999 0.31
-1.4400001 -0.039999999 0.41
-1.4400001 -0.039999999 0.50999999
-1.4400001 -0.039999999 0.61000001
-1.4400001 -0.039999999 0.70999998
-1.4400001 -0.039999999 0.81
-1.4400001 -0.039999999 0.91000003
-1.4400001 -0.039999999 1.01
-1.4400001 -0.039999999 1.11
-1.4400001 -0.039999999 1.21
-1.4400001 -0.039999999 1.3099999
-1.4400001 -0.039999999 1.41
-1.4400001 -0.039999999 1.51
-1.4400001 -0.039999999 1.61
-1.4400001 -0.039999999 1.71
-1.4400001 -0.039999999 1.8099999
-1.4400001 -0.039999999 1.91
-1.4400001 -0.039999999 2.01
-1.4400001 -0.039999999 2.1099999
-1.4400001 -0.039999999 2.21
-1.4400001 -0.039999999 2.3099999
-1.4400001 -0.039999999 2.4100001
-1.4400001 -0.039999999 2.51
-1.4400001 -0.039999999 2.6099999
-1.4400001 -0.039999999 2.71
-1.4400001 -0.039999999 2.8099999
-1.4400001 -0.039999999 2.9100001
-1.4400001 0.059999999 0.0099999998
-1.4400001 0.059999999 0.11
-1.4400001 0.059999999 0.20999999
-1.4400001 0.059999999 0.31
-1.4400001 0.059999999 0.41
-1.4400001 0.059999999 0.50999999
-1.4400001 0.059999999 0.61000001
-1.4400001 0.059999999 0.70999998
-1.4400001 0.059999999 0.81
-1.4400001 0.059999999 0.91000003
-1.4400001 0.059999999 1.01
-1.4400001 0.059999999 1.11
-1.4400001 0.059999999 1.21
-1.4400001 0.059999999 1.3099999
-1.4400001 0.059999999 1.41
-1.4400001 0.059999999 1.51
-1.4400001 0.059999999 1.61
-1.4400001 0.059999999 1.71
-1.4400001 0.059999999 1.8099999
-1.4400001 0.059999999 1.91
-1.4400001 0.059999999 2.01
-1.4400001 0.059999999 2.1099999
-1.4400001 0.059999999 2.21
-1.4400001 0.059999999 2.3099999
-1.4400001 0.059999999 2.4100001
-1.4400001 0.059999999 2.51
-1.4400001 0.059999999 2.6099999
-1.4400001 0.059999999 2.71
-1.4400001 0.059999999 2.8099999
-1.4400001 0.059999999 2.9100001
-1.4400001 0.16 0.0099999998
-1.4400001 0.16 0.11
-1.4400001 0.16 0.20999999
-1.4400001 0.16 0.31
-1.4400001 0.16 0.41
-1.4400001 0.16 0.50999999
-1.4400001 0.16 0.61000001
-1.4400001 0.16 0.70999998
-1.4400001 0.16 0.81
-1.4400001 0.16 0.91000003
-1.4400001 0.16 1.01
-1.4400001 0.16 1.11
-1.4400001 0.16 1.21
-1.4400001 0.16 1.3099999
-1.4400001 0.16 1.41
-1.4400001 0.16 1.51
-1.4400001 0.16 1.61
-1.4400001 0.16 1.71
-1.4400001 0.16 1.8099999
-1.4400001 0.16 1.91
-1.4400001 0.16 2.01
-1.4400001 0.16 2.1099999
-1.4400001 0.16 2.21
-1.4400001 0.16 2.3099999
-1.4400001 0.16 2.4100001
-1.4400001 0.16 2.51
-1.4400001 0.16 2.6099999
-1.4400001 0.16 2.71
-1.4400001 0.16 2.8099999
-1.4400001 0.16 2.9100001
-1.34 -0.039999999 0.0099999998
-1.34 -0.039999999 0.11
-1.34 -0.039999999 0.20999999
-1.34 -0.039999999 0.31
-1.34 -0.039999999 0.41
-1.34 -0.039999999 0.50999999
-1.34 -0.039999999 0.61000001
-1.34 -0.039999999 0.70999998
-1.34 -0.039999999 0.81
-1.34 -0.039999999 0.91000003
-1.34 -0.039999999 1.01
-1.34 -0.039999999 1.11
-1.34 -0.039999999 1.21
-1.34 -0.039999999 1.3099999
-1.34 -0.039999999 1.41
-1.34 -0.039999999 1.51
-1.34 -0.039999999 1.61
-1.34 -0.039999999 1.71
-1.34 -0.039999999 1.8099999
-1.34 -0.039999999 1.91
-1.34 -0.039999999 2.01
-1.34 -0.039999999 2.1099999
-1.34 -0.039999999 2.21
-1.34 -0.039999999 2.3099999
-1.34 -0.039999999 2.4100001
-1.34 -0.039999999 2.51
-1.34 -0.039999999 2.6099999
-1.34 -0.039999999 2.71
-1.34 -0.039999999 2.8099999
-1.34 -0.039999999 2.9100001
-1.34 0.059999999 0.0099999998
-1.34 0.059999999 0.11
-1.34 0.059999999 0.20999999
-1.34 0.059999999 0.31
-1.34 0.059999999 0.41
-1.34 0.059999999 0.50999999
-1.34 0.059999999 0.61000001
-1.34 0.059999999 0.70999998
-1.34 0.059999999 0.81
-1.34 0.059999999 0.91000003
-1.34 0.059999999 1.01
-1.34 0.059999999 1.11
-1.34 0.059999999 1.21
-1.34 0.059999999 1.3099999
-1.34 0.059999999 1.41
-1.34 0.059999999 1.51
-1.34 0.059999999 1.61
-1.34 0.059999999 1.71
-1.34 0.059999999 1.8099999
-1.34 0.059999999 1.91
-1.34 0.059999999 2.01
-1.34 0.059999999 2.1099999
-1.34 0.059999999 2.21
-1.34 0.059999999 2.3099999
-1.34 0.059999999 2.4100001
-1.34 0.059999999 2.51
-1.34 0.059999999 2.6099999
-1.34 0.059999999 2.71
-1.34 0.059999999 2.8099999
-1.34 0.059999999 2.9100001
-1.34 0.16 0.0099999998
-1.34 0.16 0.11
-1.34 0.16 0.20999999
-1.34 0.16 0.31
-1.34 0.16 0.41
-1.34 0.16 0.50999999
-1.34 0.16 0.61000001
-1.34 0.16 0.70999998
-1.34 0.16 0.81
-1.34 0.16 0.91000003
-1.34 0.16 1.01
-1.34 0.16 1.11
-1.34 0.16 1.21
-1.34 0.16 1.3099999
-1.34 0.16 1.41
-1.34 0.16 1.51
-1.34 0.16 1.61
-1.34 0.16 1.71
-1.34 0.16 1.8099999
-1.34 0.16 1.91
-1.34 0.16 2.01
-1.34 0.16 2.1099999
-1.34 0.16 2.21
-1.34 0.16 2.3099999
-1.34 0.16 2.4100001
-1.34 0.16 2.51
-1.34 0.16 2.6099999
-1.34 0.16 2.71
-1.34 0.16 2.8099999
-1.34 0.16 2.9100001
-0.039999999 1.66 0.0099999998
-0.039999999 1.66 0.11
-0.039999999 1.66 0.20999999
-0.039999999 1.66 0.31
-0.039999999 1.66 0.41
-0.039999999 1.66 0.50999999
-0.039999999 1.66 0.61000001
-0.039999999 1.66 0.70999998
-0.039999999 1.66 0.81
-0.039999999 1.66 0.91000003
-0.039999999 1.66 1.01
-0.039999999 1.66 1.11
-0.039999999 1.66 1.21
-0.039999999 1.66 1.3099999
-0.039999999 1.66 1.41
-0.039999999 1.66 1.51
-0.039999999 1.66 1.61
-0.039999999 1.66 1.71
-0.039999999 1.66 1.8099999
-0.039999999 1.66 1.91
-0.039999999 1.66 2.01
-0.039999999 1.66 2.1099999
-0.039999999 1.66 2.21
-0.039999999 1.66 2.3099999
-0.039999999 1.66 2.4100001
-0.039999999 1.66 2.51
-0.039999999 1.66 2.6099999
-0.039999999 1.66 2.71
-0.039999999 1.66 2.8099999
-0.039999999 1.66 2.9100001
-0.039999999 1.76 0.0099999998
-0.039999999 1.76 0.11
-0.039999999 1.76 0.20999999
-0.039999999 1.76 0.31
-0.039999999 1.76 0.41
-0.039999999 1.76 0.50999999
-0.039999999 1.76 0.61000001
-0.039999999 1.76 0.70999998
-0.039999999 1.76 0.81
-0.039999999 1.76 0.91000003
-0.039999999 1.76 1.01
-0.039999999 1.76 1.11
-0.039999999 1.76 1.21
-0.039999999 1.76 1.3099999
-0.039999999 1.76 1.41
-0.039999999 1.76 1.51
-0.039999999 1.76 1.61
-0.039999999 1.76 1.71
-0.039999999 1.76 1.8099999
-0.039999999 1.76 1.91
-0.039999999 1.76 2.01
-0.039999999 1.76 2.1099999
-0.039999999 1.76 2.21
-0.039999999 1.76 2.3099999
-0.039999999 1.76 2.4100001
-0.039999999 1.76 2.51
-0.039999999 1.76 2.6099999
-0.039999999 1.76 2.71
-0.039999999 1.76 2.8099999
-0.039999999 1.76 2.9100001
-0.039999999 1.86 0.0099999998
-0.039999999 1.86 0.11
-0.039999999 1.86 0.20999999
-0.039999999 1.86 0.31
-0.039999999 1.86 0.41
-0.039999999 1.86 0.50999999
-0.039999999 1.86 0.61000001
-0.039999999 1.86 0.70999998
-0.039999999 1.86 0.81
-0.039999999 1.86 0.91000003
-0.039999999 1.86 1.01
-0.039999999 1.86 1.11
-0.039999999 1.86 1.21
-0.039999999 1.86 1.3099999
-0.039999999 1.86 1.41
-0.039999999 1.86 1.51
-0.039999999 1.86 1.61
-0.039999999 1.86 1.71
-0.039999999 1.86 1.8099999
-0.039999999 1.86 1.91
-0.039999999 1.86 2.01
-0.039999999 1.86 2.1099999
-0.039999999 1.86 2.21
-0.039999999 1.86 2.3099999
-0.039999999 1.86 2.4100001
-0.039999999 1.86 2.51
-0.039999999 1.86 2.6099999
-0.039999999 1.86 2.71
-0.039999999 1.86 2.8099999
-0.039999999 1.86 2.9100001
0.059999999 1.66 0.0099999998
0.059999999 1.66 0.11
0.059999999 1.66 0.20999999
0.059999999 1.66 0.31
0.059999999 1.66 0.41
0.059999999 1.66 0.50999999
0.059999999 1.66 0.61000001
0.059999999 1.66 0.70999998
0.059999999 1.66 0.81
0.059999999 1.66 0.91000003
0.059999999 1.66 1.01
0.059999999 1.66 1.11
0.059999999 1.66 1.21
0.059999999 1.66 1.3099999
0.059999999 1.66 1.41
0.059999999 1.66 1.51
0.059999999 1.66 1.61
0.059999999 1.66 1.71
0.059999999 1.66 1.8099999
0.059999999 1.66 1.91
0.059999999 1.66 2.01
0.059999999 1.66 2.1099999
0.059999999 1.66 2.21
0.059999999 1.66 2.3099999
0.059999999 1.66 2.4100001
0.059999999 1.66 2.51
0.059999999 1.66 2.6099999
0.059999999 1.66 2.71
0.059999999 1.66 2.8099999
0.059999999 1.66 2.9100001
0.059999999 1.76 0.0099999998
0.059999999 1.76 0.11
0.059999999 1.76 0.20999999
0.059999999 1.76 0.31
0.059999999 1.76 0.41
0.059999999 1.76 0.50999999
0.059999999 1.76 0.61000001
0.059999999 1.76 0.70999998
0.059999999 1.76 0.81
0.059999999 1.76 0.91000003
0.059999999 1.76 1.01
0.059999999 1.76 1.11
0.059999999 1.76 1.21
0.059999999 1.76 1.3099999
0.059999999 1.76 1.41
0.059999999 1.76 1.51
0.059999999 1.76 1.61
0.059999999 1.76 1.71
0.059999999 1.76 1.8099999
0.059999999 1.76 1.91
0.059999999 1.76 2.01
0.059999999 1.76 2.1099999
0.059999999 1.76 2.21
0.059999999 1.76 2.3099999
0.059999999 1.76 2.4100001
0.059999999 1.76 2.51
0.059999999 1.76 2.6099999
0.059999999 1.76 2.71
0.059999999 1.76 2.8099999
0.059999999 1.76 2.9100001
0.059999999 1.86 0.0099999998
0.059999999 1.86 0.11
0.059999999 1.86 0.20999999
0.059999999 1.86 0.31
0.059999999 1.86 0.41
0.059999999 1.86 0.50999999
0.059999999 1.86 0.61000001
0.059999999 1.86 0.70999998
0.059999999 1.86 0.81
0.059999999 1.86 0.91000003
0.059999999 1.86 1.01
0.059999999 1.86 1.11
0.059999999 1.86 1.21
0.059999999 1.86 1.3099999
0.059999999 1.86 1.41
0.059999999 1.86 1.51
0.059999999 1.86 1.61
0.059999999 1.86 1.71
0.059999999 1.86 1.8099999
0.059999999 1.86 1.91
0.059999999 1.86 2.01
0.059999999 1.86 2.1099999
0.059999999 1.86 2.21
0.059999999 1.86 2.3099999
0.059999999 1.86 2.4100001
0.059999999 1.86 2.51
0.059999999 1.86 2.6099999
0.059999999 1.86 2.71
0.059999999 1.86 2.8099999
0.059999999 1.86 2.9100001
0.16 1.66 0.0099999998
0.16 1.66 0.11
0.16 1.66 0.20999999
0.16 1.66 0.31
0.16 1.66 0.41
0.16 1.66 0.50999999
0.16 1.66 0.61000001
0.16 1.66 0.70999998
0.16 1.66 0.81
0.16 1.66 0.91000003
0.16 1.66 1.01
0.16 1.66 1.11
0.16 1.66 1.21
0.16 1.66 1.3099999
0.16 1.66 1.41
0.16 1.66 1.51
0.16 1.66 1.61
0.16 1.66 1.71
0.16 1.66 1.8099999
0.16 1.66 1.91
0.16 1.66 2.01
0.16 1.66 2.1099999
0.16 1.66 2.21
0.16 1.66 2.3099999
0.16 1.66 2.4100001
0.16 1.66 2.51
0.16 1.66 2.6099999
0.16 1.66 2.71
0.16 1.66 2.8099999
0.16 1.66 2.9100001
0.16 1.76 0.0099999998
0.16 1.76 0.11
0.16 1.76 0.20999999
0.16 1.76 0.31
0.16 1.76 0.41
0.16 1.76 0.50999999
0.16 1.76 0.61000001
0.16 1.76 0.70999998
0.16 1.76 0.81
0.16 1.76 0.91000003
0.16 1.76 1.01
0.16 1.76 1.11
0.16 1.76 1.21
0.16 1.76 1.3099999
0.16 1.76 1.41
0.16 1.76 1.51
0.16 1.76 1.61
0.16 1.76 1.71
0.16 1.76 1.8099999
0.16 1.76 1.91
0.16 1.76 2.01
0.16 1.76 2.1099999
0.16 1.76 2.21
0.16 1.76 2.3099999
0.16 1.76 2.4100001
0.16 1.76 2.51
0.16 1.76 2.6099999
0.16 1.76 2.71
0.16 1.76 2.8099999
0.16 1.76 2.9100001
0.16 1.86 0.0099999998
0.16 1.86 0.11
0.16 1.86 0.20999999
0.16 1.86 0.31
0.16 1.86 0.41
0.16 1.86 0.50999999
0.16 1.86 0.61000001
0.16 1.86 0.70999998
0.16 1.86 0.81
0.16 1.86 0.91000003
0.16 1.86 1.01
0.16 1.86 1.11
0.16 1.86 1.21
0.16 1.86 1.3099999
0.16 1.86 1.41
0.16 1.86 1.51
0.16 1.86 1.61
0.16 1.86 1.71
0.16 1.86 1.8099999
0.16 1.86 1.91
0.16 1.86 2.01
0.16 1.86 2.1099999
0.16 1.86 2.21
0.16 1.86 2.3099999
0.16 1.86 2.4100001
0.16 1.86 2.51
0.16 1.86 2.6099999
0.16 1.86 2.71
0.16 1.86 2.8099999
0.16 1.86 2.9100001
-0.34 -0.039999999 0.0099999998
-0.34 -0.039999999 0.11
-0.34 -0.039999999 0.20999999
-0.34 -0.039999999 0.31
-0.34 -0.039999999 0.41
-0.34 -0.039999999 0.50999999
-0.34 -0.039999999 0.61000001
-0.34 -0.039999999 0.70999998
-0.34 -0.039999999 0.81
-0.34 -0.039999999 0.91000003
-0.34 -0.039999999 1.01
-0.34 -0.039999999 1.11
-0.34 -0.039999999 1.21
-0.34 -0.039999999 1.3099999
-0.34 -0.039999999 1.41
-0.34 -0.039999999 1.51
-0.34 -0.039999999 1.61
-0.34 -0.039999999 1.71
-0.34 -0.039999999 1.8099999
-0.34 -0.039999999 1.91
-0.34 -0.039999999 2.01
-0.34 -0.039999999 2.1099999
-0.34 -0.039999999 2.21
-0.34 -0.039999999 2.3099999
-0.34 -0.039999999 2.4100001
-0.34 -0.039999999 2.51
-0.34 -0.039999999 2.6099999
-0.34 -0.039999999 2.71
-0.34 -0.039999999 2.8099999
-0.34 -0.039999999 2.9100001
-0.34 0.059999999 0.0099999998
-0.34 0.059999999 0.11
-0.34 0.059999999 0.20999999
-0.34 0.059999999 0.31
-0.34 0.059999999 0.41
-0.34 0.059999999 0.50999999
-0.34 0.059999999 0.61000001
-0.34 0.059999999 0.70999998
-0.34 0.059999999 0.81
-0.34 0.059999999 0.91000003
-0.34 0.059999999 1.01
-0.34 0.059999999 1.11
-0.34 0.059999999 1.21
-0.34 0.059999999 1.3099999
-0.34 0.059999999 1.41
-0.34 0.059999999 1.51
-0.34 0.059999999 1.61
-0.34 0.059999999 1.71
-0.34 0.059999999 1.8099999
-0.34 0.059999999 1.91
-0.34 0.059999999 2.01
-0.34 0.059999999 2.1099999
-0.34 0.059999999 2.21
-0.34 0.059999999 2.3099999
-0.34 0.059999999 2.4100001
-0.34 0.059999999 2.51
-0.34 0.059999999 2.6099999
-0.34 0.059999999 2.71
-0.34 0.059999999 2.8099999
-0.34 0.059999999 2.9100001
-0.34 0.16 0.0099999998
-0.34 0.16 0.11
-0.34 0.16 0.20999999
-0.34 0.16 0.31
-0.34 0.16 0.41
-0.34 0.16 0.50999999
-0.34 0.16 0.61000001
-0.34 0.16 0.70999998
-0.34 0.16 0.81
-0.34 0.16 0.91000003
-0.34 0.16 1.01
-0.34 0.16 1.11
-0.34 0.16 1.21
-0.34 0.16 1.3099999
-0.34 0.16 1.41
-0.34 0.16 1.51
-0.34 0.16 1.61
-0.34 0.16 1.71
-0.34 0.16 1.8099999
-0.34 0.16 1.91
-0.34 0.16 2.01
-0.34 0.16 2.1099999
-0.34 0.16 2.21
-0.34 0.16 2.3099999
-0.34 0.16 2.4100001
-0.34 0.16 2.51
-0.34 0.16 2.6099999
-0.34 0.16 2.71
-0.34 0.16 2.8099999
-0.34 0.16 2.9100001
-0.23999999 -0.039999999 0.0099999998
-0.23999999 -0.039999999 0.11
-0.23999999 -0.039999999 0.20999999
-0.23999999 -0.039999999 0.31
-0.23999999 -0.039999999 0.41
-0.23999999 -0.039999999 0.50999999
-0.23999999 -0.039999999 0.61000001
-0.23999999 -0.039999999 0.70999998
-0.23999999 -0.039999999 0.81
-0.23999999 -0.039999999 0.91000003
-0.23999999 -0.039999999 1.01
-0.23999999 -0.039999999 1.11
-0.23999999 -0.039999999 1.21
-0.23999999 -0.039999999 1.3099999
-0.23999999 -0.039999999 1.41
-0.23999999 -0.039999999 1.51
-0.23999999 -0.039999999 1.61
-0.23999999 -0.039999999 1.71
-0.23999999 -0.039999999 1.8099999
-0.23999999 -0.039999999 1.91
-0.23999999 -0.039999999 2.01
-0.23999999 -0.039999999 2.1099999
-0.23999999 -0.039999999 2.21
-0.23999999 -0.039999999 2.3099999
-0.23999999 -0.039999999 2.4100001
-0.23999999 -0.039999999 2.51
-0.23999999 -0.039999999 2.6099999
-0.23999999 -0.039999999 2.71
-0.23999999 -0.039999999 2.8099999
-0.23999999 -0.039999999 2.9100001
-0.23999999 0.059999999 0.0099999998
-0.23999999 0.059999999 0.11
-0.23999999 0.059999999 0.20999999
-0.23999999 0.059999999 0.31
-0.23999999 0.059999999 0.41
-0.23999999 0.059999999 0.50999999
-0.23999999 0.059999999 0.61000001
-0.23999999 0.059999999 0.70999998
-0.23999999 0.059999999 0.81
-0.23999999 0.059999999 0.91000003
-0.23999999 0.059999999 1.01
-0.23999999 0.059999999 1.11
-0.23999999 0.059999999 1.21
-0.23999999 0.059999999 1.3099999
-0.23999999 0.059999999 1.41
-0.23999999 0.059999999 1.51
-0.23999999 0.059999999 1.61
-0.23999999 0.059999999 1.71
-0.23999999 0.059999999 1.8099999
-0.23999999 0.059999999 1.91
-0.23999999 0.059999999 2.01
-0.23999999 0.059999999 2.1099999
-0.23999999 0.059999999 2.21
-0.23999999 0.059999999 2.3099999
-0.23999999 0.059999999 2.4100001
-0.23999999 0.059999999 2.51
-0.23999999 0.059999999 2.6099999
-0.23999999 0.059999999 2.71
-0.23999999 0.059999999 2.8099999
-0.23999999 0.059999999 2.9100001
-0.23999999 0.16 0.0099999998
-0.23999999 0.16 0.11
-0.23999999 0.16 0.20999999
-0.23999999 0.16 0.31
-0.23999999 0.16 0.41
-0.23999999 0.16 0.50999999
-0.23999999 0.16 0.61000001
-0.23999999 0.16 0.70999998
-0.23999999 0.16 0.81
-0.23999999 0.16 0.91000003
-0.23999999 0.16 1.01
-0.23999999 0.16 1.11
-0.23999999 0.16 1.21
-0.23999999 0.16 1.3099999
-0.23999999 0.16 1.41
-0.23999999 0.16 1.51
-0.23999999 0.16 1.61
-0.23999999 0.16 1.71
-0.23999999 0.16 1.8099999
-0.23999999 0.16 1.91
-0.23999999 0.16 2.01
-0.23999999 0.16 2.1099999
-0.23999999 0.16 2.21
-0.23999999 0.16 2.3099999
-0.23999999 0.16 2.4100001
-0.23999999 0.16 2.51
-0.23999999 0.16 2.6099999
-0.23999999 0.16 2.71
-0.23999999 0.16 2.8099999
-0.23999999 0.16 2.9100001
-0.14 -0.039999999 0.0099999998
-0.14 -0.039999999 0.11
-0.14 -0.039999999 0.20999999
-0.14 -0.039999999 0.31
-0.14 -0.039999999 0.41
-0.14 -0.039999999 0.50999999
-0.14 -0.039999999 0.61000001
-0.14 -0.039999999 0.70999998
-0.14 -0.039999999 0.81
-0.14 -0.039999999 0.91000003
-0.14 -0.039999999 1.01
-0.14 -0.039999999 1.11
-0.14 -0.039999999 1.21
-0.14 -0.039999999 1.3099999
-0.14 -0.039999999 1.41
-0.14 -0.039999999 1.51
-0.14 -0.039999999 1.61
-0.14 -0.039999999 1.71
-0.14 -0.039999999 1.8099999
-0.14 -0.039999999 1.91
-0.14 -0.039999999 2.01
-0.14 -0.039999999 2.1099999
-0.14 -0.039999999 2.21
-0.14 -0.039999999 2.3099999
-0.14 -0.039999999 2.4100001
-0.14 -0.039999999 2.51
-0.14 -0.039999999 2.6099999
-0.14 -0.039999999 2.71
-0.14 -0.039999999 2.8099999
-0.14 -0.039999999 2.9100001
-0.14 0.059999999 0.0099999998
-0.14 0.059999999 0.11
-0.14 0.059999999 0.20999999
-0.14 0.059999999 0.31
-0.14 0.059999999 0.41
-0.14 0.059999999 0.50999999
-0.14 0.059999999 0.61000001
-0.14 0.059999999 0.70999998
-0.14 0.059999999 0.81
-0.14 0.059999999 0.91000003
-0.14 0.059999999 1.01
-0.14 0.059999999 1.11
-0.14 0.059999999 1.21
-0.14 0.059999999 1.3099999
-0.14 0.059999999 1.41
-0.14 0.059999999 1.51
-0.14 0.059999999 1.61
-0.14 0.059999999 1.71
-0.14 0.059999999 1.8099999
-0.14 0.059999999 1.91
-0.14 0.059999999 2.01
-0.14 0.059999999 2.1099999
-0.14 0.059999999 2.21
-0.14 0.059999999 2.3099999
-0.14 0.059999999 2.4100001
-0.14 0.059999999 2.51
-0.14 0.059999999 2.6099999
-0.14 0.059999999 2.71
-0.14 0.059999999 2.8099999
-0.14 0.059999999 2.9100001
-0.14 0.16 0.0099999998
-0.14 0.16 0.11
-0.14 0.16 0.20999999
-0.14 0.16 0.31
-0.14 0.16 0.41
-0.14 0.16 0.50999999
-0.14 0.16 0.61000001
-0.14 0.16 0.70999998
-0.14 0.16 0.81
-0.14 0.16 0.91000003
-0.14 0.16 1.01
-0.14 0.16 1.11
-0.14 0.16 1.21
-0.14 0.16 1.3099999
-0.14 0.16 1.41
-0.14 0.16 1.51
-0.14 0.16 1.61
-0.14 0.16 1.71
-0.14 0.16 1.8099999
-0.14 0.16 1.91
-0.14 0.16 2.01
-0.14 0.16 2.1099999
-0.14 0.16 2.21
-0.14 0.16 2.3099999
-0.14 0.16 2.4100001
-0.14 0.16 2.51
-0.14 0.16 2.6099999
-0.14 0.16 2.71
-0.14 0.16 2.8099999
-0.14 0.16 2.9100001
