# .PCD v0.7 - Point Cloud Data file format
VERSION 0.7
FIELDS x y z
SIZE 4 4 4
TYPE F F F
COUNT 1 1 1
WIDTH 1920
HEIGHT 1
VIEWPOINT 0 0 0 1 0 0 0
POINTS 1920
DATA ascii
8.4099998 -1.79 2.3599999
8.4099998 -1.79 2.46
8.4099998 -1.79 2.5599999
8.4099998 -1.79 2.6600001
8.4099998 -1.79 2.76
8.4099998 -1.79 2.8599999
8.4099998 -1.79 2.96
8.4099998 -1.79 3.0599999
8.4099998 -1.79 3.1600001
8.4099998 -1.79 3.26
8.4099998 -1.79 3.3599999
8.4099998 -1.79 3.46
8.4099998 -1.79 3.5599999
8.4099998 -1.79 3.6600001
8.4099998 -1.79 3.76
8.4099998 -1.79 3.8599999
8.4099998 -1.79 3.96
8.4099998 -1.79 4.0599999
8.4099998 -1.79 4.1599998
8.4099998 -1.79 4.2600002
8.4099998 -1.79 4.3600001
8.4099998 -1.79 4.46
8.4099998 -1.79 4.5599999
8.4099998 -1.79 4.6599998
8.4099998 -1.79 4.7600002
8.4099998 -1.79 4.8600001
8.4099998 -1.79 4.96
10.81 -2.3900001 0.059999999
10.81 -2.3900001 0.16
10.81 -2.3900001 0.25999999
10.81 -2.3900001 0.36000001
10.81 -2.3900001 0.46000001
10.81 -2.3900001 0.56
10.81 -2.3900001 0.66000003
10.81 -2.3900001 0.75999999
10.81 -2.3900001 0.86000001
10.81 -2.3900001 0.95999998
10.81 -2.3900001 1.0599999
10.81 -2.3900001 1.16
10.81 -2.3900001 1.26
10.81 -2.3900001 1.36
10.81 -2.3900001 1.46
10.81 -2.3900001 1.5599999
10.81 -2.3900001 1.66
10.81 -2.3900001 1.76
10.81 -2.3900001 1.86
10.81 -2.3900001 1.96
10.81 -2.3900001 2.0599999
10.81 -2.3900001 2.1600001
10.81 -2.3900001 2.26
10.81 -2.3900001 2.3599999
10.81 -2.3900001 2.46
10.81 -2.3900001 2.5599999
10.81 -2.3900001 2.6600001
10.81 -2.3900001 2.76
10.81 -2.3900001 2.8599999
10.81 -2.3900001 2.96
10.81 -2.3900001 3.0599999
10.81 -2.3900001 3.1600001
10.81 -2.3900001 3.26
10.81 -2.3900001 3.3599999
10.81 -2.3900001 3.46
10.81 -2.3900001 3.5599999
10.81 -2.3900001 3.6600001
10.81 -2.3900001 3.76
10.81 -2.3900001 3.8599999
10.81 -2.3900001 3.96
10.81 -2.3900001 4.0599999
10.81 -2.3900001 4.1599998
10.81 -2.3900001 4.2600002
10.81 -2.3900001 4.3600001
10.81 -2.3900001 4.46
10.81 -2.3900001 4.5599999
10.81 -2.3900001 4.6599998
10.81 -2.3900001 4.7600002
10.81 -2.3900001 4.8600001
10.81 -2.3900001 4.96
10.81 -2.29 0.059999999
10.81 -2.29 0.16
10.81 -2.29 0.25999999
10.81 -2.29 0.36000001
10.81 -2.29 0.46000001
10.81 -2.29 0.56
10.81 -2.29 0.66000003
10.81 -2.29 0.75999999
10.81 -2.29 0.86000001
10.81 -2.29 0.95999998
10.81 -2.29 1.0599999
10.81 -2.29 1.16
10.81 -2.29 1.26
10.81 -2.29 1.36
10.81 -2.29 1.46
10.81 -2.29 1.5599999
10.81 -2.29 1.66
10.81 -2.29 1.76
10.81 -2.29 1.86
10.81 -2.29 1.96
10.81 -2.29 2.0599999
10.81 -2.29 2.1600001
10.81 -2.29 2.26
10.81 -2.29 2.3599999
10.81 -2.29 2.46
10.81 -2.29 2.5599999
10.81 -2.29 2.6600001
10.81 -2.29 2.76
10.81 -2.29 2.8599999
10.81 -2.29 2.96
10.81 -2.29 3.0599999
10.81 -2.29 3.1600001
10.81 -2.29 3.26
10.81 -2.29 3.3599999
10.81 -2.29 3.46
10.81 -2.29 3.5599999
10.81 -2.29 3.6600001
10.81 -2.29 3.76
10.81 -2.29 3.8599999
10.81 -2.29 3.96
10.81 -2.29 4.0599999
10.81 -2.29 4.1599998
10.81 -2.29 4.2600002
10.81 -2.29 4.3600001
10.81 -2.29 4.46
10.81 -2.29 4.5599999
10.81 -2.29 4.6599998
10.81 -2.29 4.7600002
10.81 -2.29 4.8600001
10.81 -2.29 4.96
10.91 -2.49 0.059999999
10.91 -2.49 0.16
10.91 -2.49 0.25999999
10.91 -2.49 0.36000001
10.91 -2.49 0.46000001
10.91 -2.49 0.56
10.91 -2.49 0.66000003
10.91 -2.49 0.75999999
10.91 -2.49 0.86000001
10.91 -2.49 0.95999998
10.91 -2.49 1.0599999
10.91 -2.49 1.16
10.91 -2.49 1.26
10.91 -2.49 1.36
10.91 -2.49 1.46
10.91 -2.49 1.5599999
10.91 -2.49 1.66
10.91 -2.49 1.76
10.91 -2.49 1.86
10.91 -2.49 1.96
10.91 -2.49 2.0599999
10.91 -2.49 2.1600001
10.91 -2.49 2.26
10.91 -2.49 2.3599999
10.91 -2.49 2.46
10.91 -2.49 2.5599999
10.91 -2.49 2.6600001
10.91 -2.49 2.76
10.91 -2.49 2.8599999
10.91 -2.49 2.96
10.91 -2.49 3.0599999
10.91 -2.49 3.1600001
10.91 -2.49 3.26
10.91 -2.49 3.3599999
10.91 -2.49 3.46
10.91 -2.49 3.5599999
10.91 -2.49 3.6600001
10.91 -2.49 3.76
10.91 -2.49 3.8599999
10.91 -2.49 3.96
10.91 -2.49 4.0599999
10.91 -2.49 4.1599998
10.91 -2.49 4.2600002
10.91 -2.49 4.3600001
10.91 -2.49 4.46
10.91 -2.49 4.5599999
10.91 -2.49 4.6599998
10.91 -2.49 4.7600002
10.91 -2.49 4.8600001
10.91 -2.49 4.96
10.91 -2.3900001 0.059999999
10.91 -2.3900001 0.16
10.91 -2.3900001 0.25999999
10.91 -2.3900001 0.36000001
10.91 -2.3900001 0.46000001
10.91 -2.3900001 0.56
10.91 -2.3900001 0.66000003
10.91 -2.3900001 0.75999999
10.91 -2.3900001 0.86000001
10.91 -2.3900001 0.95999998
10.91 -2.3900001 1.0599999
10.91 -2.3900001 1.16
10.91 -2.3900001 1.26
10.91 -2.3900001 1.36
10.91 -2.3900001 1.46
10.91 -2.3900001 1.5599999
10.91 -2.3900001 1.66
10.91 -2.3900001 1.76
10.91 -2.3900001 1.86
10.91 -2.3900001 1.96
10.91 -2.3900001 2.0599999
10.91 -2.3900001 2.1600001
10.91 -2.3900001 2.26
10.91 -2.3900001 2.3599999
10.91 -2.3900001 2.46
10.91 -2.3900001 2.5599999
10.91 -2.3900001 2.6600001
10.91 -2.3900001 2.76
10.91 -2.3900001 2.8599999
10.91 -2.3900001 2.96
10.91 -2.3900001 3.0599999
10.91 -2.3900001 3.1600001
10.91 -2.3900001 3.26
10.91 -2.3900001 3.3599999
10.91 -2.3900001 3.46
10.91 -2.3900001 3.5599999
10.91 -2.3900001 3.6600001
10.91 -2.3900001 3.76
10.91 -2.3900001 3.8599999
10.91 -2.3900001 3.96
10.91 -2.3900001 4.0599999
10.91 -2.3900001 4.1599998
10.91 -2.3900001 4.2600002
10.91 -2.3900001 4.3600001
10.91 -2.3900001 4.46
10.91 -2.3900001 4.5599999
10.91 -2.3900001 4.6599998
10.91 -2.3900001 4.7600002
10.91 -2.3900001 4.8600001
10.91 -2.3900001 4.96
10.91 -2.29 0.059999999
10.91 -2.29 0.16
10.91 -2.29 0.25999999
10.91 -2.29 0.36000001
10.91 -2.29 0.46000001
10.91 -2.29 0.56
10.91 -2.29 0.66000003
10.91 -2.29 0.75999999
10.91 -2.29 0.86000001
10.91 -2.29 0.95999998
10.91 -2.29 1.0599999
10.91 -2.29 1.16
10.91 -2.29 1.26
10.91 -2.29 1.36
10.91 -2.29 1.46
10.91 -2.29 1.5599999
10.91 -2.29 1.66
10.91 -2.29 1.76
10.91 -2.29 1.86
10.91 -2.29 1.96
10.91 -2.29 2.0599999
10.91 -2.29 2.1600001
10.91 -2.29 2.26
10.91 -2.29 2.3599999
10.91 -2.29 2.46
10.91 -2.29 2.5599999
10.91 -2.29 2.6600001
10.91 -2.29 2.76
10.91 -2.29 2.8599999
10.91 -2.29 2.96
10.91 -2.29 3.0599999
10.91 -2.29 3.1600001
10.91 -2.29 3.26
10.91 -2.29 3.3599999
10.91 -2.29 3.46
10.91 -2.29 3.5599999
10.91 -2.29 3.6600001
10.91 -2.29 3.76
10.91 -2.29 3.8599999
10.91 -2.29 3.96
10.91 -2.29 4.0599999
10.91 -2.29 4.1599998
10.91 -2.29 4.2600002
10.91 -2.29 4.3600001
10.91 -2.29 4.46
10.91 -2.29 4.5599999
10.91 -2.29 4.6599998
10.91 -2.29 4.7600002
10.91 -2.29 4.8600001
10.91 -2.29 4.96
10.91 -2.1900001 0.059999999
10.91 -2.1900001 0.16
10.91 -2.1900001 0.25999999
10.91 -2.1900001 0.36000001
10.91 -2.1900001 0.46000001
10.91 -2.1900001 0.56
10.91 -2.1900001 0.66000003
10.91 -2.1900001 0.75999999
10.91 -2.1900001 0.86000001
10.91 -2.1900001 0.95999998
10.91 -2.1900001 1.0599999
10.91 -2.1900001 1.16
10.91 -2.1900001 1.26
10.91 -2.1900001 1.36
10.91 -2.1900001 1.46
10.91 -2.1900001 1.5599999
10.91 -2.1900001 1.66
10.91 -2.1900001 1.76
10.91 -2.1900001 1.86
10.91 -2.1900001 1.96
10.91 -2.1900001 2.0599999
10.91 -2.1900001 2.1600001
10.91 -2.1900001 2.26
10.91 -2.1900001 2.3599999
10.91 -2.1900001 2.46
10.91 -2.1900001 2.5599999
10.91 -2.1900001 2.6600001
10.91 -2.1900001 2.76
10.91 -2.1900001 2.8599999
10.91 -2.1900001 2.96
10.91 -2.1900001 3.0599999
10.91 -2.1900001 3.1600001
10.91 -2.1900001 3.26
10.91 -2.1900001 3.3599999
10.91 -2.1900001 3.46
10.91 -2.1900001 3.5599999
10.91 -2.1900001 3.6600001
10.91 -2.1900001 3.76
10.91 -2.1900001 3.8599999
10.91 -2.1900001 3.96
10.91 -2.1900001 4.0599999
10.91 -2.1900001 4.1599998
10.91 -2.1900001 4.2600002
10.91 -2.1900001 4.3600001
10.91 -2.1900001 4.46
10.91 -2.1900001 4.5599999
10.91 -2.1900001 4.6599998
10.91 -2.1900001 4.7600002
10.91 -2.1900001 4.8600001
10.91 -2.1900001 4.96
11.01 -2.49 0.059999999
11.01 -2.49 0.16
11.01 -2.49 0.25999999
11.01 -2.49 0.36000001
11.01 -2.49 0.46000001
11.01 -2.49 0.56
11.01 -2.49 0.66000003
11.01 -2.49 0.75999999
11.01 -2.49 0.86000001
11.01 -2.49 0.95999998
11.01 -2.49 1.0599999
11.01 -2.49 1.16
11.01 -2.49 1.26
11.01 -2.49 1.36
11.01 -2.49 1.46
11.01 -2.49 1.5599999
11.01 -2.49 1.66
11.01 -2.49 1.76
11.01 -2.49 1.86
11.01 -2.49 1.96
11.01 -2.49 2.0599999
11.01 -2.49 2.1600001
11.01 -2.49 2.26
11.01 -2.49 2.3599999
11.01 -2.49 2.46
11.01 -2.49 2.5599999
11.01 -2.49 2.6600001
11.01 -2.49 2.76
11.01 -2.49 2.8599999
11.01 -2.49 2.96
11.01 -2.49 3.0599999
11.01 -2.49 3.1600001
11.01 -2.49 3.26
11.01 -2.49 3.3599999
11.01 -2.49 3.46
11.01 -2.49 3.5599999
11.01 -2.49 3.6600001
11.01 -2.49 3.76
11.01 -2.49 3.8599999
11.01 -2.49 3.96
11.01 -2.49 4.0599999
11.01 -2.49 4.1599998
11.01 -2.49 4.2600002
11.01 -2.49 4.3600001
11.01 -2.49 4.46
11.01 -2.49 4.5599999
11.01 -2.49 4.6599998
11.01 -2.49 4.7600002
11.01 -2.49 4.8600001
11.01 -2.49 4.96
11.01 -2.3900001 0.059999999
11.01 -2.3900001 0.16
11.01 -2.3900001 0.25999999
11.01 -2.3900001 0.36000001
11.01 -2.3900001 0.46000001
11.01 -2.3900001 0.56
11.01 -2.3900001 0.66000003
11.01 -2.3900001 0.75999999
11.01 -2.3900001 0.86000001
11.01 -2.3900001 0.95999998
11.01 -2.3900001 1.0599999
11.01 -2.3900001 1.16
11.01 -2.3900001 1.26
11.01 -2.3900001 1.36
11.01 -2.3900001 1.46
11.01 -2.3900001 1.5599999
11.01 -2.3900001 1.66
11.01 -2.3900001 1.76
11.01 -2.3900001 1.86
11.01 -2.3900001 1.96
11.01 -2.3900001 2.0599999
11.01 -2.3900001 2.1600001
11.01 -2.3900001 2.26
11.01 -2.3900001 2.3599999
11.01 -2.3900001 2.46
11.01 -2.3900001 2.5599999
11.01 -2.3900001 2.6600001
11.01 -2.3900001 2.76
11.01 -2.3900001 2.8599999
11.01 -2.3900001 2.96
11.01 -2.3900001 3.0599999
11.01 -2.3900001 3.1600001
11.01 -2.3900001 3.26
11.01 -2.3900001 3.3599999
11.01 -2.3900001 3.46
11.01 -2.3900001 3.5599999
11.01 -2.3900001 3.6600001
11.01 -2.3900001 3.76
11.01 -2.3900001 3.8599999
11.01 -2.3900001 3.96
11.01 -2.3900001 4.0599999
11.01 -2.3900001 4.1599998
11.01 -2.3900001 4.2600002
11.01 -2.3900001 4.3600001
11.01 -2.3900001 4.46
11.01 -2.3900001 4.5599999
11.01 -2.3900001 4.6599998
11.01 -2.3900001 4.7600002
11.01 -2.3900001 4.8600001
11.01 -2.3900001 4.96
11.01 -2.29 0.059999999
11.01 -2.29 0.16
11.01 -2.29 0.25999999
11.01 -2.29 0.36000001
11.01 -2.29 0.46000001
11.01 -2.29 0.56
11.01 -2.29 0.66000003
11.01 -2.29 0.75999999
11.01 -2.29 0.86000001
11.01 -2.29 0.95999998
11.01 -2.29 1.0599999
11.01 -2.29 1.16
11.01 -2.29 1.26
11.01 -2.29 1.36
11.01 -2.29 1.46
11.01 -2.29 1.5599999
11.01 -2.29 1.66
11.01 -2.29 1.76
11.01 -2.29 1.86
11.01 -2.29 1.96
11.01 -2.29 2.0599999
11.01 -2.29 2.1600001
11.01 -2.29 2.26
11.01 -2.29 2.3599999
11.01 -2.29 2.46
11.01 -2.29 2.5599999
11.01 -2.29 2.6600001
11.01 -2.29 2.76
11.01 -2.29 2.8599999
11.01 -2.29 2.96
11.01 -2.29 3.0599999
11.01 -2.29 3.1600001
11.01 -2.29 3.26
11.01 -2.29 3.3599999
11.01 -2.29 3.46
11.01 -2.29 3.5599999
11.01 -2.29 3.6600001
11.01 -2.29 3.76
11.01 -2.29 3.8599999
11.01 -2.29 3.96
11.01 -2.29 4.0599999
11.01 -2.29 4.1599998
11.01 -2.29 4.2600002
11.01 -2.29 4.3600001
11.01 -2.29 4.46
11.01 -2.29 4.5599999
11.01 -2.29 4.6599998
11.01 -2.29 4.7600002
11.01 -2.29 4.8600001
11.01 -2.29 4.96
11.01 -2.1900001 0.059999999
11.01 -2.1900001 0.16
11.01 -2.1900001 0.25999999
11.01 -2.1900001 0.36000001
11.01 -2.1900001 0.46000001
11.01 -2.1900001 0.56
11.01 -2.1900001 0.66000003
11.01 -2.1900001 0.75999999
11.01 -2.1900001 0.86000001
11.01 -2.1900001 0.95999998
11.01 -2.1900001 1.0599999
11.01 -2.1900001 1.16
11.01 -2.1900001 1.26
11.01 -2.1900001 1.36
11.01 -2.1900001 1.46
11.01 -2.1900001 1.5599999
11.01 -2.1900001 1.66
11.01 -2.1900001 1.76
11.01 -2.1900001 1.86
11.01 -2.1900001 1.96
11.01 -2.1900001 2.0599999
11.01 -2.1900001 2.1600001
11.01 -2.1900001 2.26
11.01 -2.1900001 2.3599999
11.01 -2.1900001 2.46
11.01 -2.1900001 2.5599999
11.01 -2.1900001 2.6600001
11.01 -2.1900001 2.76
11.01 -2.1900001 2.8599999
11.01 -2.1900001 2.96
11.01 -2.1900001 3.0599999
11.01 -2.1900001 3.1600001
11.01 -2.1900001 3.26
11.01 -2.1900001 3.3599999
11.01 -2.1900001 3.46
11.01 -2.1900001 3.5599999
11.01 -2.1900001 3.6600001
11.01 -2.1900001 3.76
11.01 -2.1900001 3.8599999
11.01 -2.1900001 3.96
11.01 -2.1900001 4.0599999
11.01 -2.1900001 4.1599998
11.01 -2.1900001 4.2600002
11.01 -2.1900001 4.3600001
11.01 -2.1900001 4.46
11.01 -2.1900001 4.5599999
11.01 -2.1900001 4.6599998
11.01 -2.1900001 4.7600002
11.01 -2.1900001 4.8600001
11.01 -2.1900001 4.96
11.11 -2.3900001 0.059999999
11.11 -2.3900001 0.16
11.11 -2.3900001 0.25999999
11.11 -2.3900001 0.36000001
11.11 -2.3900001 0.46000001
11.11 -2.3900001 0.56
11.11 -2.3900001 0.66000003
11.11 -2.3900001 0.75999999
11.11 -2.3900001 0.86000001
11.11 -2.3900001 0.95999998
11.11 -2.3900001 1.0599999
11.11 -2.3900001 1.16
11.11 -2.3900001 1.26
11.11 -2.3900001 1.36
11.11 -2.3900001 1.46
11.11 -2.3900001 1.5599999
11.11 -2.3900001 1.66
11.11 -2.3900001 1.76
11.11 -2.3900001 1.86
11.11 -2.3900001 1.96
11.11 -2.3900001 2.0599999
11.11 -2.3900001 2.1600001
11.11 -2.3900001 2.26
11.11 -2.3900001 2.3599999
11.11 -2.3900001 2.46
11.11 -2.3900001 2.5599999
11.11 -2.3900001 2.6600001
11.11 -2.3900001 2.76
11.11 -2.3900001 2.8599999
11.11 -2.3900001 2.96
11.11 -2.3900001 3.0599999
11.11 -2.3900001 3.1600001
11.11 -2.3900001 3.26
11.11 -2.3900001 3.3599999
11.11 -2.3900001 3.46
11.11 -2.3900001 3.5599999
11.11 -2.3900001 3.6600001
11.11 -2.3900001 3.76
11.11 -2.3900001 3.8599999
11.11 -2.3900001 3.96
11.11 -2.3900001 4.0599999
11.11 -2.3900001 4.1599998
11.11 -2.3900001 4.2600002
11.11 -2.3900001 4.3600001
11.11 -2.3900001 4.46
11.11 -2.3900001 4.5599999
11.11 -2.3900001 4.6599998
11.11 -2.3900001 4.7600002
11.11 -2.3900001 4.8600001
11.11 -2.3900001 4.96
11.11 -2.29 0.059999999
11.11 -2.29 0.16
11.11 -2.29 0.25999999
11.11 -2.29 0.36000001
11.11 -2.29 0.46000001
11.11 -2.29 0.56
11.11 -2.29 0.66000003
11.11 -2.29 0.75999999
11.11 -2.29 0.86000001
11.11 -2.29 0.95999998
11.11 -2.29 1.0599999
11.11 -2.29 1.16
11.11 -2.29 1.26
11.11 -2.29 1.36
11.11 -2.29 1.46
11.11 -2.29 1.5599999
11.11 -2.29 1.66
11.11 -2.29 1.76
11.11 -2.29 1.86
11.11 -2.29 1.96
11.11 -2.29 2.0599999
11.11 -2.29 2.1600001
11.11 -2.29 2.26
11.11 -2.29 2.3599999
11.11 -2.29 2.46
11.11 -2.29 2.5599999
11.11 -2.29 2.6600001
11.11 -2.29 2.76
11.11 -2.29 2.8599999
11.11 -2.29 2.96
11.11 -2.29 3.0599999
11.11 -2.29 3.1600001
11.11 -2.29 3.26
11.11 -2.29 3.3599999
11.11 -2.29 3.46
11.11 -2.29 3.5599999
11.11 -2.29 3.6600001
11.11 -2.29 3.76
11.11 -2.29 3.8599999
11.11 -2.29 3.96
11.11 -2.29 4.0599999
11.11 -2.29 4.1599998
11.11 -2.29 4.2600002
11.11 -2.29 4.3600001
11.11 -2.29 4.46
11.11 -2.29 4.5599999
11.11 -2.29 4.6599998
11.11 -2.29 4.7600002
11.11 -2.29 4.8600001
11.11 -2.29 4.96
-2.6900001 -8.79 0.059999999
-2.6900001 -8.79 0.16
-2.6900001 -8.79 0.25999999
-2.6900001 -8.79 0.36000001
-2.6900001 -8.79 0.46000001
-2.6900001 -8.79 0.56
-2.6900001 -8.79 0.66000003
-2.6900001 -8.79 0.75999999
-2.6900001 -8.79 0.86000001
-2.6900001 -8.79 0.95999998
-2.6900001 -8.79 1.0599999
-2.6900001 -8.79 1.16
-2.6900001 -8.79 1.26
-2.6900001 -8.79 1.36
-2.6900001 -8.79 1.46
-2.6900001 -8.79 1.5599999
-2.6900001 -8.79 1.66
-2.6900001 -8.79 1.76
-2.6900001 -8.79 1.86
-2.6900001 -8.79 1.96
-2.6900001 -8.79 2.0599999
-2.6900001 -8.79 2.1600001
-2.6900001 -8.79 2.26
-2.6900001 -8.79 2.3599999
-2.6900001 -8.79 2.46
-2.6900001 -8.79 2.5599999
-2.6900001 -8.79 2.6600001
-2.6900001 -8.79 2.76
-2.6900001 -8.79 2.8599999
-2.6900001 -8.79 2.96
-2.6900001 -8.79 3.0599999
-2.6900001 -8.79 3.1600001
-2.6900001 -8.79 3.26
-2.6900001 -8.79 3.3599999
-2.6900001 -8.79 3.46
-2.6900001 -8.79 3.5599999
-2.6900001 -8.79 3.6600001
-2.6900001 -8.79 3.76
-2.6900001 -8.79 3.8599999
-2.6900001 -8.79 3.96
-2.6900001 -8.79 4.0599999
-2.6900001 -8.79 4.1599998
-2.6900001 -8.79 4.2600002
-2.6900001 -8.79 4.3600001
-2.6900001 -8.79 4.46
-2.6900001 -8.79 4.5599999
-2.6900001 -8.79 4.6599998
-2.6900001 -8.79 4.7600002
-2.6900001 -8.79 4.8600001
-2.6900001 -8.79 4.96
-2.6900001 -8.6899996 0.059999999
-2.6900001 -8.6899996 0.16
-2.6900001 -8.6899996 0.25999999
-2.6900001 -8.6899996 0.36000001
-2.6900001 -8.6899996 0.46000001
-2.6900001 -8.6899996 0.56
-2.6900001 -8.6899996 0.66000003
-2.6900001 -8.6899996 0.75999999
-2.6900001 -8.6899996 0.86000001
-2.6900001 -8.6899996 0.95999998
-2.6900001 -8.6899996 1.0599999
-2.6900001 -8.6899996 1.16
-2.6900001 -8.6899996 1.26
-2.6900001 -8.6899996 1.36
-2.6900001 -8.6899996 1.46
-2.6900001 -8.6899996 1.5599999
-2.6900001 -8.6899996 1.66
-2.6900001 -8.6899996 1.76
-2.6900001 -8.6899996 1.86
-2.6900001 -8.6899996 1.96
-2.6900001 -8.6899996 2.0599999
-2.6900001 -8.6899996 2.1600001
-2.6900001 -8.6899996 2.26
-2.6900001 -8.6899996 2.3599999
-2.6900001 -8.6899996 2.46
-2.6900001 -8.6899996 2.5599999
-2.6900001 -8.6899996 2.6600001
-2.6900001 -8.6899996 2.76
-2.6900001 -8.6899996 2.8599999
-2.6900001 -8.6899996 2.96
-2.6900001 -8.6899996 3.0599999
-2.6900001 -8.6899996 3.1600001
-2.6900001 -8.6899996 3.26
-2.6900001 -8.6899996 3.3599999
-2.6900001 -8.6899996 3.46
-2.6900001 -8.6899996 3.5599999
-2.6900001 -8.6899996 3.6600001
-2.6900001 -8.6899996 3.76
-2.6900001 -8.6899996 3.8599999
-2.6900001 -8.6899996 3.96
-2.6900001 -8.6899996 4.0599999
-2.6900001 -8.6899996 4.1599998
-2.6900001 -8.6899996 4.2600002
-2.6900001 -8.6899996 4.3600001
-2.6900001 -8.6899996 4.46
-2.6900001 -8.6899996 4.5599999
-2.6900001 -8.6899996 4.6599998
-2.6900001 -8.6899996 4.7600002
-2.6900001 -8.6899996 4.8600001
-2.6900001 -8.6899996 4.96
-2.6900001 -8.5900002 0.059999999
-2.6900001 -8.5900002 0.16
-2.6900001 -8.5900002 0.25999999
-2.6900001 -8.5900002 0.36000001
-2.6900001 -8.5900002 0.46000001
-2.6900001 -8.5900002 0.56
-2.6900001 -8.5900002 0.66000003
-2.6900001 -8.5900002 0.75999999
-2.6900001 -8.5900002 0.86000001
-2.6900001 -8.5900002 0.95999998
-2.6900001 -8.5900002 1.0599999
-2.6900001 -8.5900002 1.16
-2.6900001 -8.5900002 1.26
-2.6900001 -8.5900002 1.36
-2.6900001 -8.5900002 1.46
-2.6900001 -8.5900002 1.5599999
-2.6900001 -8.5900002 1.66
-2.6900001 -8.5900002 1.76
-2.6900001 -8.5900002 1.86
-2.6900001 -8.5900002 1.96
-2.6900001 -8.5900002 2.0599999
-2.6900001 -8.5900002 2.1600001
-2.6900001 -8.5900002 2.26
-2.6900001 -8.5900002 2.3599999
-2.6900001 -8.5900002 2.46
-2.6900001 -8.5900002 2.5599999
-2.6900001 -8.5900002 2.6600001
-2.6900001 -8.5900002 2.76
-2.6900001 -8.5900002 2.8599999
-2.6900001 -8.5900002 2.96
-2.6900001 -8.5900002 3.0599999
-2.6900001 -8.5900002 3.1600001
-2.6900001 -8.5900002 3.26
-2.6900001 -8.5900002 3.3599999
-2.6900001 -8.5900002 3.46
-2.6900001 -8.5900002 3.5599999
-2.6900001 -8.5900002 3.6600001
-2.6900001 -8.5900002 3.76
-2.6900001 -8.5900002 3.8599999
-2.6900001 -8.5900002 3.96
-2.6900001 -8.5900002 4.0599999
-2.6900001 -8.5900002 4.1599998
-2.6900001 -8.5900002 4.2600002
-2.6900001 -8.5900002 4.3600001
-2.6900001 -8.5900002 4.46
-2.6900001 -8.5900002 4.5599999
-2.6900001 -8.5900002 4.6599998
-2.6900001 -8.5900002 4.7600002
-2.6900001 -8.5900002 4.8600001
-2.6900001 -8.5900002 4.96
-2.6900001 -8.4899998 0.059999999
-2.6900001 -8.4899998 0.16
-2.6900001 -8.4899998 0.25999999
-2.6900001 -8.4899998 0.36000001
-2.6900001 -8.4899998 0.46000001
-2.6900001 -8.4899998 0.56
-2.6900001 -8.4899998 0.66000003
-2.6900001 -8.4899998 0.75999999
-2.6900001 -8.4899998 0.86000001
-2.6900001 -8.4899998 0.95999998
-2.6900001 -8.4899998 1.0599999
-2.6900001 -8.4899998 1.16
-2.6900001 -8.4899998 1.26
-2.6900001 -8.4899998 1.36
-2.6900001 -8.4899998 1.46
-2.6900001 -8.4899998 1.5599999
-2.6900001 -8.4899998 1.66
-2.6900001 -8.4899998 1.76
-2.6900001 -8.4899998 1.86
-2.6900001 -8.4899998 1.96
-2.6900001 -8.4899998 2.0599999
-2.6900001 -8.4899998 2.1600001
-2.6900001 -8.4899998 2.26
-2.6900001 -8.4899998 2.3599999
-2.6900001 -8.4899998 2.46
-2.6900001 -8.4899998 2.5599999
-2.6900001 -8.4899998 2.6600001
-2.6900001 -8.4899998 2.76
-2.6900001 -8.4899998 2.8599999
-2.6900001 -8.4899998 2.96
-2.6900001 -8.4899998 3.0599999
-2.6900001 -8.4899998 3.1600001
-2.6900001 -8.4899998 3.26
-2.6900001 -8.4899998 3.3599999
-2.6900001 -8.4899998 3.46
-2.6900001 -8.4899998 3.5599999
-2.6900001 -8.4899998 3.6600001
-2.6900001 -8.4899998 3.76
-2.6900001 -8.4899998 3.8599999
-2.6900001 -8.4899998 3.96
-2.6900001 -8.4899998 4.0599999
-2.6900001 -8.4899998 4.1599998
-2.6900001 -8.4899998 4.2600002
-2.6900001 -8.4899998 4.3600001
-2.6900001 -8.4899998 4.46
-2.6900001 -8.4899998 4.5599999
-2.6900001 -8.4899998 4.6599998
-2.6900001 -8.4899998 4.7600002
-2.6900001 -8.4899998 4.8600001
-2.6900001 -8.4899998 4.96
-2.5899999 -8.79 0.059999999
-2.5899999 -8.79 0.16
-2.5899999 -8.79 0.25999999
-2.5899999 -8.79 0.36000001
-2.5899999 -8.79 0.46000001
-2.5899999 -8.79 0.56
-2.5899999 -8.79 0.66000003
-2.5899999 -8.79 0.75999999
-2.5899999 -8.79 0.86000001
-2.5899999 -8.79 0.95999998
-2.5899999 -8.79 1.0599999
-2.5899999 -8.79 1.16
-2.5899999 -8.79 1.26
-2.5899999 -8.79 1.36
-2.5899999 -8.79 1.46
-2.5899999 -8.79 1.5599999
-2.5899999 -8.79 1.66
-2.5899999 -8.79 1.76
-2.5899999 -8.79 1.86
-2.5899999 -8.79 1.96
-2.5899999 -8.79 2.0599999
-2.5899999 -8.79 2.1600001
-2.5899999 -8.79 2.26
-2.5899999 -8.79 2.3599999
-2.5899999 -8.79 2.46
-2.5899999 -8.79 2.5599999
-2.5899999 -8.79 2.6600001
-2.5899999 -8.79 2.76
-2.5899999 -8.79 2.8599999
-2.5899999 -8.79 2.96
-2.5899999 -8.79 3.0599999
-2.5899999 -8.79 3.1600001
-2.5899999 -8.79 3.26
-2.5899999 -8.79 3.3599999
-2.5899999 -8.79 3.46
-2.5899999 -8.79 3.5599999
-2.5899999 -8.79 3.6600001
-2.5899999 -8.79 3.76
-2.5899999 -8.79 3.8599999
-2.5899999 -8.79 3.96
-2.5899999 -8.79 4.0599999
-2.5899999 -8.79 4.1599998
-2.5899999 -8.79 4.2600002
-2.5899999 -8.79 4.3600001
-2.5899999 -8.79 4.46
-2.5899999 -8.79 4.5599999
-2.5899999 -8.79 4.6599998
-2.5899999 -8.79 4.7600002
-2.5899999 -8.79 4.8600001
-2.5899999 -8.79 4.96
-2.5899999 -8.6899996 0.059999999
-2.5899999 -8.6899996 0.16
-2.5899999 -8.6899996 0.25999999
-2.5899999 -8.6899996 0.36000001
-2.5899999 -8.6899996 0.46000001
-2.5899999 -8.6899996 0.56
-2.5899999 -8.6899996 0.66000003
-2.5899999 -8.6899996 0.75999999
-2.5899999 -8.6899996 0.86000001
-2.5899999 -8.6899996 0.95999998
-2.5899999 -8.6899996 1.0599999
-2.5899999 -8.6899996 1.16
-2.5899999 -8.6899996 1.26
-2.5899999 -8.6899996 1.36
-2.5899999 -8.6899996 1.46
-2.5899999 -8.6899996 1.5599999
-2.5899999 -8.6899996 1.66
-2.5899999 -8.6899996 1.76
-2.5899999 -8.6899996 1.86
-2.5899999 -8.6899996 1.96
-2.5899999 -8.6899996 2.0599999
-2.5899999 -8.6899996 2.1600001
-2.5899999 -8.6899996 2.26
-2.5899999 -8.6899996 2.3599999
-2.5899999 -8.6899996 2.46
-2.5899999 -8.6899996 2.5599999
-2.5899999 -8.6899996 2.6600001
-2.5899999 -8.6899996 2.76
-2.5899999 -8.6899996 2.8599999
-2.5899999 -8.6899996 2.96
-2.5899999 -8.6899996 3.0599999
-2.5899999 -8.6899996 3.1600001
-2.5899999 -8.6899996 3.26
-2.5899999 -8.6899996 3.3599999
-2.5899999 -8.6899996 3.46
-2.5899999 -8.6899996 3.5599999
-2.5899999 -8.6899996 3.6600001
-2.5899999 -8.6899996 3.76
-2.5899999 -8.6899996 3.8599999
-2.5899999 -8.6899996 3.96
-2.5899999 -8.6899996 4.0599999
-2.5899999 -8.6899996 4.1599998
-2.5899999 -8.6899996 4.2600002
-2.5899999 -8.6899996 4.3600001
-2.5899999 -8.6899996 4.46
-2.5899999 -8.6899996 4.5599999
-2.5899999 -8.6899996 4.6599998
-2.5899999 -8.6899996 4.7600002
-2.5899999 -8.6899996 4.8600001
-2.5899999 -8.6899996 4.96
-2.5899999 -8.5900002 0.059999999
-2.5899999 -8.5900002 0.16
-2.5899999 -8.5900002 0.25999999
-2.5899999 -8.5900002 0.36000001
-2.5899999 -8.5900002 0.46000001
-2.5899999 -8.5900002 0.56
-2.5899999 -8.5900002 0.66000003
-2.5899999 -8.5900002 0.75999999
-2.5899999 -8.5900002 0.86000001
-2.5899999 -8.5900002 0.95999998
-2.5899999 -8.5900002 1.0599999
-2.5899999 -8.5900002 1.16
-2.5899999 -8.5900002 1.26
-2.5899999 -8.5900002 1.36
-2.5899999 -8.5900002 1.46
-2.5899999 -8.5900002 1.5599999
-2.5899999 -8.5900002 1.66
-2.5899999 -8.5900002 1.76
-2.5899999 -8.5900002 1.86
-2.5899999 -8.5900002 1.96
-2.5899999 -8.5900002 2.0599999
-2.5899999 -8.5900002 2.1600001
-2.5899999 -8.5900002 2.26
-2.5899999 -8.5900002 2.3599999
-2.5899999 -8.5900002 2.46
-2.5899999 -8.5900002 2.5599999
-2.5899999 -8.5900002 2.6600001
-2.5899999 -8.5900002 2.76
-2.5899999 -8.5900002 2.8599999
-2.5899999 -8.5900002 2.96
-2.5899999 -8.5900002 3.0599999
-2.5899999 -8.5900002 3.1600001
-2.5899999 -8.5900002 3.26
-2.5899999 -8.5900002 3.3599999
-2.5899999 -8.5900002 3.46
-2.5899999 -8.5900002 3.5599999
-2.5899999 -8.5900002 3.6600001
-2.5899999 -8.5900002 3.76
-2.5899999 -8.5900002 3.8599999
-2.5899999 -8.5900002 3.96
-2.5899999 -8.5900002 4.0599999
-2.5899999 -8.5900002 4.1599998
-2.5899999 -8.5900002 4.2600002
-2.5899999 -8.5900002 4.3600001
-2.5899999 -8.5900002 4.46
-2.5899999 -8.5900002 4.5599999
-2.5899999 -8.5900002 4.6599998
-2.5899999 -8.5900002 4.7600002
-2.5899999 -8.5900002 4.8600001
-2.5899999 -8.5900002 4.96
-2.5899999 -8.4899998 0.059999999
-2.5899999 -8.4899998 0.16
-2.5899999 -8.4899998 0.25999999
-2.5899999 -8.4899998 0.36000001
-2.5899999 -8.4899998 0.46000001
-2.5899999 -8.4899998 0.56
-2.5899999 -8.4899998 0.66000003
-2.5899999 -8.4899998 0.75999999
-2.5899999 -8.4899998 0.86000001
-2.5899999 -8.4899998 0.95999998
-2.5899999 -8.4899998 1.0599999
-2.5899999 -8.4899998 1.16
-2.5899999 -8.4899998 1.26
-2.5899999 -8.4899998 1.36
-2.5899999 -8.4899998 1.46
-2.5899999 -8.4899998 1.5599999
-2.5899999 -8.4899998 1.66
-2.5899999 -8.4899998 1.76
-2.5899999 -8.4899998 1.86
-2.5899999 -8.4899998 1.96
-2.5899999 -8.4899998 2.0599999
-2.5899999 -8.4899998 2.1600001
-2.5899999 -8.4899998 2.26
-2.5899999 -8.4899998 2.3599999
-2.5899999 -8.4899998 2.46
-2.5899999 -8.4899998 2.5599999
-2.5899999 -8.4899998 2.6600001
-2.5899999 -8.4899998 2.76
-2.5899999 -8.4899998 2.8599999
-2.5899999 -8.4899998 2.96
-2.5899999 -8.4899998 3.0599999
-2.5899999 -8.4899998 3.1600001
-2.5899999 -8.4899998 3.26
-2.5899999 -8.4899998 3.3599999
-2.5899999 -8.4899998 3.46
-2.5899999 -8.4899998 3.5599999
-2.5899999 -8.4899998 3.6600001
-2.5899999 -8.4899998 3.76
-2.5899999 -8.4899998 3.8599999
-2.5899999 -8.4899998 3.96
-2.5899999 -8.4899998 4.0599999
-2.5899999 -8.4899998 4.1599998
-2.5899999 -8.4899998 4.2600002
-2.5899999 -8.4899998 4.3600001
-2.5899999 -8.4899998 4.46
-2.5899999 -8.4899998 4.5599999
-2.5899999 -8.4899998 4.6599998
-2.5899999 -8.4899998 4.7600002
-2.5899999 -8.4899998 4.8600001
-2.5899999 -8.4899998 4.96
-2.49 -8.79 0.059999999
-2.49 -8.79 0.16
-2.49 -8.79 0.25999999
-2.49 -8.79 0.36000001
-2.49 -8.79 0.46000001
-2.49 -8.79 0.56
-2.49 -8.79 0.66000003
-2.49 -8.79 0.75999999
-2.49 -8.79 0.86000001
-2.49 -8.79 0.95999998
-2.49 -8.79 1.0599999
-2.49 -8.79 1.16
-2.49 -8.79 1.26
-2.49 -8.79 1.36
-2.49 -8.79 1.46
-2.49 -8.79 1.5599999
-2.49 -8.79 1.66
-2.49 -8.79 1.76
-2.49 -8.79 1.86
-2.49 -8.79 1.96
-2.49 -8.79 2.0599999
-2.49 -8.79 2.1600001
-2.49 -8.79 2.26
-2.49 -8.79 2.3599999
-2.49 -8.79 2.46
-2.49 -8.79 2.5599999
-2.49 -8.79 2.6600001
-2.49 -8.79 2.76
-2.49 -8.79 2.8599999
-2.49 -8.79 2.96
-2.49 -8.79 3.0599999
-2.49 -8.79 3.1600001
-2.49 -8.79 3.26
-2.49 -8.79 3.3599999
-2.49 -8.79 3.46
-2.49 -8.79 3.5599999
-2.49 -8.79 3.6600001
-2.49 -8.79 3.76
-2.49 -8.79 3.8599999
-2.49 -8.79 3.96
-2.49 -8.79 4.0599999
-2.49 -8.79 4.1599998
-2.49 -8.79 4.2600002
-2.49 -8.79 4.3600001
-2.49 -8.79 4.46
-2.49 -8.79 4.5599999
-2.49 -8.79 4.6599998
-2.49 -8.79 4.7600002
-2.49 -8.79 4.8600001
-2.49 -8.79 4.96
-2.49 -8.6899996 0.059999999
-2.49 -8.6899996 0.16
-2.49 -8.6899996 0.25999999
-2.49 -8.6899996 0.36000001
-2.49 -8.6899996 0.46000001
-2.49 -8.6899996 0.56
-2.49 -8.6899996 0.66000003
-2.49 -8.6899996 0.75999999
-2.49 -8.6899996 0.86000001
-2.49 -8.6899996 0.95999998
-2.49 -8.6899996 1.0599999
-2.49 -8.6899996 1.16
-2.49 -8.6899996 1.26
-2.49 -8.6899996 1.36
-2.49 -8.6899996 1.46
-2.49 -8.6899996 1.5599999
-2.49 -8.6899996 1.66
-2.49 -8.6899996 1.76
-2.49 -8.6899996 1.86
-2.49 -8.6899996 1.96
-2.49 -8.6899996 2.0599999
-2.49 -8.6899996 2.1600001
-2.49 -8.6899996 2.26
-2.49 -8.6899996 2.3599999
-2.49 -8.6899996 2.46
-2.49 -8.6899996 2.5599999
-2.49 -8.6899996 2.6600001
-2.49 -8.6899996 2.76
-2.49 -8.6899996 2.8599999
-2.49 -8.6899996 2.96
-2.49 -8.6899996 3.0599999
-2.49 -8.6899996 3.1600001
-2.49 -8.6899996 3.26
-2.49 -8.6899996 3.3599999
-2.49 -8.6899996 3.46
-2.49 -8.6899996 3.5599999
-2.49 -8.6899996 3.6600001
-2.49 -8.6899996 3.76
-2.49 -8.6899996 3.8599999
-2.49 -8.6899996 3.96
-2.49 -8.6899996 4.0599999
-2.49 -8.6899996 4.1599998
-2.49 -8.6899996 4.2600002
-2.49 -8.6899996 4.3600001
-2.49 -8.6899996 4.46
-2.49 -8.6899996 4.5599999
-2.49 -8.6899996 4.6599998
-2.49 -8.6899996 4.7600002
-2.49 -8.6899996 4.8600001
-2.49 -8.6899996 4.96
-2.49 -8.5900002 0.059999999
-2.49 -8.5900002 0.16
-2.49 -8.5900002 0.25999999
-2.49 -8.5900002 0.36000001
-2.49 -8.5900002 0.46000001
-2.49 -8.5900002 0.56
-2.49 -8.5900002 0.66000003
-2.49 -8.5900002 0.75999999
-2.49 -8.5900002 0.86000001
-2.49 -8.5900002 0.95999998
-2.49 -8.5900002 1.0599999
-2.49 -8.5900002 1.16
-2.49 -8.5900002 1.26
-2.49 -8.5900002 1.36
-2.49 -8.5900002 1.46
-2.49 -8.5900002 1.5599999
-2.49 -8.5900002 1.66
-2.49 -8.5900002 1.76
-2.49 -8.5900002 1.86
-2.49 -8.5900002 1.96
-2.49 -8.5900002 2.0599999
-2.49 -8.5900002 2.1600001
-2.49 -8.5900002 2.26
-2.49 -8.5900002 2.3599999
-2.49 -8.5900002 2.46
-2.49 -8.5900002 2.5599999
-2.49 -8.5900002 2.6600001
-2.49 -8.5900002 2.76
-2.49 -8.5900002 2.8599999
-2.49 -8.5900002 2.96
-2.49 -8.5900002 3.0599999
-2.49 -8.5900002 3.1600001
-2.49 -8.5900002 3.26
-2.49 -8.5900002 3.3599999
-2.49 -8.5900002 3.46
-2.49 -8.5900002 3.5599999
-2.49 -8.5900002 3.6600001
-2.49 -8.5900002 3.76
-2.49 -8.5900002 3.8599999
-2.49 -8.5900002 3.96
-2.49 -8.5900002 4.0599999
-2.49 -8.5900002 4.1599998
-2.49 -8.5900002 4.2600002
-2.49 -8.5900002 4.3600001
-2.49 -8.5900002 4.46
-2.49 -8.5900002 4.5599999
-2.49 -8.5900002 4.6599998
-2.49 -8.5900002 4.7600002
-2.49 -8.5900002 4.8600001
-2.49 -8.5900002 4.96
-2.49 -8.4899998 0.059999999
-2.49 -8.4899998 0.16
-2.49 -8.4899998 0.25999999
-2.49 -8.4899998 0.36000001
-2.49 -8.4899998 0.46000001
-2.49 -8.4899998 0.56
-2.49 -8.4899998 0.66000003
-2.49 -8.4899998 0.75999999
-2.49 -8.4899998 0.86000001
-2.49 -8.4899998 0.95999998
-2.49 -8.4899998 1.0599999
-2.49 -8.4899998 1.16
-2.49 -8.4899998 1.26
-2.49 -8.4899998 1.36
-2.49 -8.4899998 1.46
-2.49 -8.4899998 1.5599999
-2.49 -8.4899998 1.66
-2.49 -8.4899998 1.76
-2.49 -8.4899998 1.86
-2.49 -8.4899998 1.96
-2.49 -8.4899998 2.0599999
-2.49 -8.4899998 2.1600001
-2.49 -8.4899998 2.26
-2.49 -8.4899998 2.3599999
-2.49 -8.4899998 2.46
-2.49 -8.4899998 2.5599999
-2.49 -8.4899998 2.6600001
-2.49 -8.4899998 2.76
-2.49 -8.4899998 2.8599999
-2.49 -8.4899998 2.96
-2.49 -8.4899998 3.0599999
-2.49 -8.4899998 3.1600001
-2.49 -8.4899998 3.26
-2.49 -8.4899998 3.3599999
-2.49 -8.4899998 3.46
-2.49 -8.4899998 3.5599999
-2.49 -8.4899998 3.6600001
-2.49 -8.4899998 3.76
-2.49 -8.4899998 3.8599999
-2.49 -8.4899998 3.96
-2.49 -8.4899998 4.0599999
-2.49 -8.4899998 4.1599998
-2.49 -8.4899998 4.2600002
-2.49 -8.4899998 4.3600001
-2.49 -8.4899998 4.46
-2.49 -8.4899998 4.5599999
-2.49 -8.4899998 4.6599998
-2.49 -8.4899998 4.7600002
-2.49 -8.4899998 4.8600001
-2.49 -8.4899998 4.96
-2.3900001 -8.79 0.059999999
-2.3900001 -8.79 0.16
-2.3900001 -8.79 0.25999999
-2.3900001 -8.79 0.36000001
-2.3900001 -8.79 0.46000001
-2.3900001 -8.79 0.56
-2.3900001 -8.79 0.66000003
-2.3900001 -8.79 0.75999999
-2.3900001 -8.79 0.86000001
-2.3900001 -8.79 0.95999998
-2.3900001 -8.79 1.0599999
-2.3900001 -8.79 1.16
-2.3900001 -8.79 1.26
-2.3900001 -8.79 1.36
-2.3900001 -8.79 1.46
-2.3900001 -8.79 1.5599999
-2.3900001 -8.79 1.66
-2.3900001 -8.79 1.76
-2.3900001 -8.79 1.86
-2.3900001 -8.79 1.96
-2.3900001 -8.79 2.0599999
-2.3900001 -8.79 2.1600001
-2.3900001 -8.79 2.26
-2.3900001 -8.79 2.3599999
-2.3900001 -8.79 2.46
-2.3900001 -8.79 2.5599999
-2.3900001 -8.79 2.6600001
-2.3900001 -8.79 2.76
-2.3900001 -8.79 2.8599999
-2.3900001 -8.79 2.96
-2.3900001 -8.79 3.0599999
-2.3900001 -8.79 3.1600001
-2.3900001 -8.79 3.26
-2.3900001 -8.79 3.3599999
-2.3900001 -8.79 3.46
-2.3900001 -8.79 3.5599999
-2.3900001 -8.79 3.6600001
-2.3900001 -8.79 3.76
-2.3900001 -8.79 3.8599999
-2.3900001 -8.79 3.96
-2.3900001 -8.79 4.0599999
-2.3900001 -8.79 4.1599998
-2.3900001 -8.79 4.2600002
-2.3900001 -8.79 4.3600001
-2.3900001 -8.79 4.46
-2.3900001 -8.79 4.5599999
-2.3900001 -8.79 4.6599998
-2.3900001 -8.79 4.7600002
-2.3900001 -8.79 4.8600001
-2.3900001 -8.79 4.96
-2.3900001 -8.6899996 0.059999999
-2.3900001 -8.6899996 0.16
-2.3900001 -8.6899996 0.25999999
-2.3900001 -8.6899996 0.36000001
-2.3900001 -8.6899996 0.46000001
-2.3900001 -8.6899996 0.56
-2.3900001 -8.6899996 0.66000003
-2.3900001 -8.6899996 0.75999999
-2.3900001 -8.6899996 0.86000001
-2.3900001 -8.6899996 0.95999998
-2.3900001 -8.6899996 1.0599999
-2.3900001 -8.6899996 1.16
-2.3900001 -8.6899996 1.26
-2.3900001 -8.6899996 1.36
-2.3900001 -8.6899996 1.46
-2.3900001 -8.6899996 1.5599999
-2.3900001 -8.6899996 1.66
-2.3900001 -8.6899996 1.76
-2.3900001 -8.6899996 1.86
-2.3900001 -8.6899996 1.96
-2.3900001 -8.6899996 2.0599999
-2.3900001 -8.6899996 2.1600001
-2.3900001 -8.6899996 2.26
-2.3900001 -8.6899996 2.3599999
-2.3900001 -8.6899996 2.46
-2.3900001 -8.6899996 2.5599999
-2.3900001 -8.6899996 2.6600001
-2.3900001 -8.6899996 2.76
-2.3900001 -8.6899996 2.8599999
-2.3900001 -8.6899996 2.96
-2.3900001 -8.6899996 3.0599999
-2.3900001 -8.6899996 3.1600001
-2.3900001 -8.6899996 3.26
-2.3900001 -8.6899996 3.3599999
-2.3900001 -8.6899996 3.46
-2.3900001 -8.6899996 3.5599999
-2.3900001 -8.6899996 3.6600001
-2.3900001 -8.6899996 3.76
-2.3900001 -8.6899996 3.8599999
-2.3900001 -8.6899996 3.96
-2.3900001 -8.6899996 4.0599999
-2.3900001 -8.6899996 4.1599998
-2.3900001 -8.6899996 4.2600002
-2.3900001 -8.6899996 4.3600001
-2.3900001 -8.6899996 4.46
-2.3900001 -8.6899996 4.5599999
-2.3900001 -8.6899996 4.6599998
-2.3900001 -8.6899996 4.7600002
-2.3900001 -8.6899996 4.8600001
-2.3900001 -8.6899996 4.96
-2.3900001 -8.5900002 0.059999999
-2.3900001 -8.5900002 0.16
-2.3900001 -8.5900002 0.25999999
-2.3900001 -8.5900002 0.36000001
-2.3900001 -8.5900002 0.46000001
-2.3900001 -8.5900002 0.56
-2.3900001 -8.5900002 0.66000003
-2.3900001 -8.5900002 0.75999999
-2.3900001 -8.5900002 0.86000001
-2.3900001 -8.5900002 0.95999998
-2.3900001 -8.5900002 1.0599999
-2.3900001 -8.5900002 1.16
-2.3900001 -8.5900002 1.26
-2.3900001 -8.5900002 1.36
-2.3900001 -8.5900002 1.46
-2.3900001 -8.5900002 1.5599999
-2.3900001 -8.5900002 1.66
-2.3900001 -8.5900002 1.76
-2.3900001 -8.5900002 1.86
-2.3900001 -8.5900002 1.96
-2.3900001 -8.5900002 2.0599999
-2.3900001 -8.5900002 2.1600001
-2.3900001 -8.5900002 2.26
-2.3900001 -8.5900002 2.3599999
-2.3900001 -8.5900002 2.46
-2.3900001 -8.5900002 2.5599999
-2.3900001 -8.5900002 2.6600001
-2.3900001 -8.5900002 2.76
-2.3900001 -8.5900002 2.8599999
-2.3900001 -8.5900002 2.96
-2.3900001 -8.5900002 3.0599999
-2.3900001 -8.5900002 3.1600001
-2.3900001 -8.5900002 3.26
-2.3900001 -8.5900002 3.3599999
-2.3900001 -8.5900002 3.46
-2.3900001 -8.5900002 3.5599999
-2.3900001 -8.5900002 3.6600001
-2.3900001 -8.5900002 3.76
-2.3900001 -8.5900002 3.8599999
-2.3900001 -8.5900002 3.96
-2.3900001 -8.5900002 4.0599999
-2.3900001 -8.5900002 4.1599998
-2.3900001 -8.5900002 4.2600002
-2.3900001 -8.5900002 4.3600001
-2.3900001 -8.5900002 4.46
-2.3900001 -8.5900002 4.5599999
-2.3900001 -8.5900002 4.6599998
-2.3900001 -8.5900002 4.7600002
-2.3900001 -8.5900002 4.8600001
-2.3900001 -8.5900002 4.96
-12.09 2.4100001 0.059999999
-12.09 2.4100001 0.16
-12.09 2.4100001 0.25999999
-12.09 2.4100001 0.36000001
-12.09 2.4100001 0.46000001
-12.09 2.4100001 0.56
-12.09 2.4100001 0.66000003
-12.09 2.4100001 0.75999999
-12.09 2.4100001 0.86000001
-12.09 2.4100001 0.95999998
-12.09 2.4100001 1.0599999
-12.09 2.4100001 1.16
-12.09 2.4100001 1.26
-12.09 2.4100001 1.36
-12.09 2.4100001 1.46
-12.09 2.4100001 1.5599999
-12.09 2.4100001 1.66
-12.09 2.4100001 1.76
-12.09 2.4100001 1.86
-12.09 2.4100001 1.96
-12.09 2.4100001 2.0599999
-12.09 2.4100001 2.1600001
-12.09 2.4100001 2.26
-12.09 2.4100001 2.3599999
-12.09 2.4100001 2.46
-12.09 2.4100001 2.5599999
-12.09 2.4100001 2.6600001
-12.09 2.4100001 2.76
-12.09 2.4100001 2.8599999
-12.09 2.4100001 2.96
-12.09 2.4100001 3.0599999
-12.09 2.4100001 3.1600001
-12.09 2.4100001 3.26
-12.09 2.4100001 3.3599999
-12.09 2.4100001 3.46
-12.09 2.4100001 3.5599999
-12.09 2.4100001 3.6600001
-12.09 2.4100001 3.76
-12.09 2.4100001 3.8599999
-12.09 2.4100001 3.96
-12.09 2.4100001 4.0599999
-12.09 2.4100001 4.1599998
-12.09 2.4100001 4.2600002
-12.09 2.4100001 4.3600001
-12.09 2.4100001 4.46
-12.09 2.4100001 4.5599999
-12.09 2.4100001 4.6599998
-12.09 2.4100001 4.7600002
-12.09 2.4100001 4.8600001
-12.09 2.4100001 4.96
-12.09 2.51 0.059999999
-12.09 2.51 0.16
-12.09 2.51 0.25999999
-12.09 2.51 0.36000001
-12.09 2.51 0.46000001
-12.09 2.51 0.56
-12.09 2.51 0.66000003
-12.09 2.51 0.75999999
-12.09 2.51 0.86000001
-12.09 2.51 0.95999998
-12.09 2.51 1.0599999
-12.09 2.51 1.16
-12.09 2.51 1.26
-12.09 2.51 1.36
-12.09 2.51 1.46
-12.09 2.51 1.5599999
-12.09 2.51 1.66
-12.09 2.51 1.76
-12.09 2.51 1.86
-12.09 2.51 1.96
-12.09 2.51 2.0599999
-12.09 2.51 2.1600001
-12.09 2.51 2.26
-12.09 2.51 2.3599999
-12.09 2.51 2.46
-12.09 2.51 2.5599999
-12.09 2.51 2.6600001
-12.09 2.51 2.76
-12.09 2.51 2.8599999
-12.09 2.51 2.96
-12.09 2.51 3.0599999
-12.09 2.51 3.1600001
-12.09 2.51 3.26
-12.09 2.51 3.3599999
-12.09 2.51 3.46
-12.09 2.51 3.5599999
-12.09 2.51 3.6600001
-12.09 2.51 3.76
-12.09 2.51 3.8599999
-12.09 2.51 3.96
-12.09 2.51 4.0599999
-12.09 2.51 4.1599998
-12.09 2.51 4.2600002
-12.09 2.51 4.3600001
-12.09 2.51 4.46
-12.09 2.51 4.5599999
-12.09 2.51 4.6599998
-12.09 2.51 4.7600002
-12.09 2.51 4.8600001
-12.09 2.51 4.96
-11.99 2.3099999 0.059999999
-11.99 2.3099999 0.16
-11.99 2.3099999 0.25999999
-11.99 2.3099999 0.36000001
-11.99 2.3099999 0.46000001
-11.99 2.3099999 0.56
-11.99 2.3099999 0.66000003
-11.99 2.3099999 0.75999999
-11.99 2.3099999 0.86000001
-11.99 2.3099999 0.95999998
-11.99 2.3099999 1.0599999
-11.99 2.3099999 1.16
-11.99 2.3099999 1.26
-11.99 2.3099999 1.36
-11.99 2.3099999 1.46
-11.99 2.3099999 1.5599999
-11.99 2.3099999 1.66
-11.99 2.3099999 1.76
-11.99 2.3099999 1.86
-11.99 2.3099999 1.96
-11.99 2.3099999 2.0599999
-11.99 2.3099999 2.1600001
-11.99 2.3099999 2.26
-11.99 2.3099999 2.3599999
-11.99 2.3099999 2.46
-11.99 2.3099999 2.5599999
-11.99 2.3099999 2.6600001
-11.99 2.3099999 2.76
-11.99 2.3099999 2.8599999
-11.99 2.3099999 2.96
-11.99 2.3099999 3.0599999
-11.99 2.3099999 3.1600001
-11.99 2.3099999 3.26
-11.99 2.3099999 3.3599999
-11.99 2.3099999 3.46
-11.99 2.3099999 3.5599999
-11.99 2.3099999 3.6600001
-11.99 2.3099999 3.76
-11.99 2.3099999 3.8599999
-11.99 2.3099999 3.96
-11.99 2.3099999 4.0599999
-11.99 2.3099999 4.1599998
-11.99 2.3099999 4.2600002
-11.99 2.3099999 4.3600001
-11.99 2.3099999 4.46
-11.99 2.3099999 4.5599999
-11.99 2.3099999 4.6599998
-11.99 2.3099999 4.7600002
-11.99 2.3099999 4.8600001
-11.99 2.3099999 4.96
-11.99 2.4100001 0.059999999
-11.99 2.4100001 0.16
-11.99 2.4100001 0.25999999
-11.99 2.4100001 0.36000001
-11.99 2.4100001 0.46000001
-11.99 2.4100001 0.56
-11.99 2.4100001 0.66000003
-11.99 2.4100001 0.75999999
-11.99 2.4100001 0.86000001
-11.99 2.4100001 0.95999998
-11.99 2.4100001 1.0599999
-11.99 2.4100001 1.16
-11.99 2.4100001 1.26
-11.99 2.4100001 1.36
-11.99 2.4100001 1.46
-11.99 2.4100001 1.5599999
-11.99 2.4100001 1.66
-11.99 2.4100001 1.76
-11.99 2.4100001 1.86
-11.99 2.4100001 1.96
-11.99 2.4100001 2.0599999
-11.99 2.4100001 2.1600001
-11.99 2.4100001 2.26
-11.99 2.4100001 2.3599999
-11.99 2.4100001 2.46
-11.99 2.4100001 2.5599999
-11.99 2.4100001 2.6600001
-11.99 2.4100001 2.76
-11.99 2.4100001 2.8599999
-11.99 2.4100001 2.96
-11.99 2.4100001 3.0599999
-11.99 2.4100001 3.1600001
-11.99 2.4100001 3.26
-11.99 2.4100001 3.3599999
-11.99 2.4100001 3.46
-11.99 2.4100001 3.5599999
-11.99 2.4100001 3.6600001
-11.99 2.4100001 3.76
-11.99 2.4100001 3.8599999
-11.99 2.4100001 3.96
-11.99 2.4100001 4.0599999
-11.99 2.4100001 4.1599998
-11.99 2.4100001 4.2600002
-11.99 2.4100001 4.3600001
-11.99 2.4100001 4.46
-11.99 2.4100001 4.5599999
-11.99 2.4100001 4.6599998
-11.99 2.4100001 4.7600002
-11.99 2.4100001 4.8600001
-11.99 2.4100001 4.96
-11.99 2.51 0.059999999
-11.99 2.51 0.16
-11.99 2.51 0.25999999
-11.99 2.51 0.36000001
-11.99 2.51 0.46000001
-11.99 2.51 0.56
-11.99 2.51 0.66000003
-11.99 2.51 0.75999999
-11.99 2.51 0.86000001
-11.99 2.51 0.95999998
-11.99 2.51 1.0599999
-11.99 2.51 1.16
-11.99 2.51 1.26
-11.99 2.51 1.36
-11.99 2.51 1.46
-11.99 2.51 1.5599999
-11.99 2.51 1.66
-11.99 2.51 1.76
-11.99 2.51 1.86
-11.99 2.51 1.96
-11.99 2.51 2.0599999
-11.99 2.51 2.1600001
-11.99 2.51 2.26
-11.99 2.51 2.3599999
-11.99 2.51 2.46
-11.99 2.51 2.5599999
-11.99 2.51 2.6600001
-11.99 2.51 2.76
-11.99 2.51 2.8599999
-11.99 2.51 2.96
-11.99 2.51 3.0599999
-11.99 2.51 3.1600001
-11.99 2.51 3.26
-11.99 2.51 3.3599999
-11.99 2.51 3.46
-11.99 2.51 3.5599999
-11.99 2.51 3.6600001
-11.99 2.51 3.76
-11.99 2.51 3.8599999
-11.99 2.51 3.96
-11.99 2.51 4.0599999
-11.99 2.51 4.1599998
-11.99 2.51 4.2600002
-11.99 2.51 4.3600001
-11.99 2.51 4.46
-11.99 2.51 4.5599999
-11.99 2.51 4.6599998
-11.99 2.51 4.7600002
-11.99 2.51 4.8600001
-11.99 2.51 4.96
-11.99 2.6099999 0.059999999
-11.99 2.6099999 0.16
-11.99 2.6099999 0.25999999
-11.99 2.6099999 0.36000001
-11.99 2.6099999 0.46000001
-11.99 2.6099999 0.56
-11.99 2.6099999 0.66000003
-11.99 2.6099999 0.75999999
-11.99 2.6099999 0.86000001
-11.99 2.6099999 0.95999998
-11.99 2.6099999 1.0599999
-11.99 2.6099999 1.16
-11.99 2.6099999 1.26
-11.99 2.6099999 1.36
-11.99 2.6099999 1.46
-11.99 2.6099999 1.5599999
-11.99 2.6099999 1.66
-11.99 2.6099999 1.76
-11.99 2.6099999 1.86
-11.99 2.6099999 1.96
-11.99 2.6099999 2.0599999
-11.99 2.6099999 2.1600001
-11.99 2.6099999 2.26
-11.99 2.6099999 2.3599999
-11.99 2.6099999 2.46
-11.99 2.6099999 2.5599999
-11.99 2.6099999 2.6600001
-11.99 2.6099999 2.76
-11.99 2.6099999 2.8599999
-11.99 2.6099999 2.96
-11.99 2.6099999 3.0599999
-11.99 2.6099999 3.1600001
-11.99 2.6099999 3.26
-11.99 2.6099999 3.3599999
-11.99 2.6099999 3.46
-11.99 2.6099999 3.5599999
-11.99 2.6099999 3.6600001
-11.99 2.6099999 3.76
-11.99 2.6099999 3.8599999
-11.99 2.6099999 3.96
-11.99 2.6099999 4.0599999
-11.99 2.6099999 4.1599998
-11.99 2.6099999 4.2600002
-11.99 2.6099999 4.3600001
-11.99 2.6099999 4.46
-11.99 2.6099999 4.5599999
-11.99 2.6099999 4.6599998
-11.99 2.6099999 4.7600002
-11.99 2.6099999 4.8600001
-11.99 2.6099999 4.96
-11.89 2.3099999 0.059999999
-11.89 2.3099999 0.16
-11.89 2.3099999 0.25999999
-11.89 2.3099999 0.36000001
-11.89 2.3099999 0.46000001
-11.89 2.3099999 0.56
-11.89 2.3099999 0.66000003
-11.89 2.3099999 0.75999999
-11.89 2.3099999 0.86000001
-11.89 2.3099999 0.95999998
-11.89 2.3099999 1.0599999
-11.89 2.3099999 1.16
-11.89 2.3099999 1.26
-11.89 2.3099999 1.36
-11.89 2.3099999 1.46
-11.89 2.3099999 1.5599999
-11.89 2.3099999 1.66
-11.89 2.3099999 1.76
-11.89 2.3099999 1.86
-11.89 2.3099999 1.96
-11.89 2.3099999 2.0599999
-11.89 2.3099999 2.1600001
-11.89 2.3099999 2.26
-11.89 2.3099999 2.3599999
-11.89 2.3099999 2.46
-11.89 2.3099999 2.5599999
-11.89 2.3099999 2.6600001
-11.89 2.3099999 2.76
-11.89 2.3099999 2.8599999
-11.89 2.3099999 2.96
-11.89 2.3099999 3.0599999
-11.89 2.3099999 3.1600001
-11.89 2.3099999 3.26
-11.89 2.3099999 3.3599999
-11.89 2.3099999 3.46
-11.89 2.3099999 3.5599999
-11.89 2.3099999 3.6600001
-11.89 2.3099999 3.76
-11.89 2.3099999 3.8599999
-11.89 2.3099999 3.96
-11.89 2.3099999 4.0599999
-11.89 2.3099999 4.1599998
-11.89 2.3099999 4.2600002
-11.89 2.3099999 4.3600001
-11.89 2.3099999 4.46
-11.89 2.3099999 4.5599999
-11.89 2.3099999 4.6599998
-11.89 2.3099999 4.7600002
-11.89 2.3099999 4.8600001
-11.89 2.3099999 4.96
-11.89 2.4100001 0.059999999
-11.89 2.4100001 0.16
-11.89 2.4100001 0.25999999
-11.89 2.4100001 0.36000001
-11.89 2.4100001 0.46000001
-11.89 2.4100001 0.56
-11.89 2.4100001 0.66000003
-11.89 2.4100001 0.75999999
-11.89 2.4100001 0.86000001
-11.89 2.4100001 0.95999998
-11.89 2.4100001 1.0599999
-11.89 2.4100001 1.16
-11.89 2.4100001 1.26
-11.89 2.4100001 1.36
-11.89 2.4100001 1.46
-11.89 2.4100001 1.5599999
-11.89 2.4100001 1.66
-11.89 2.4100001 1.76
-11.89 2.4100001 1.86
-11.89 2.4100001 1.96
-11.89 2.4100001 2.0599999
-11.89 2.4100001 2.1600001
-11.89 2.4100001 2.26
-11.89 2.4100001 2.3599999
-11.89 2.4100001 2.46
-11.89 2.4100001 2.5599999
-11.89 2.4100001 2.6600001
-11.89 2.4100001 2.76
-11.89 2.4100001 2.8599999
-11.89 2.4100001 2.96
-11.89 2.4100001 3.0599999
-11.89 2.4100001 3.1600001
-11.89 2.4100001 3.26
-11.89 2.4100001 3.3599999
-11.89 2.4100001 3.46
-11.89 2.4100001 3.5599999
-11.89 2.4100001 3.6600001
-11.89 2.4100001 3.76
-11.89 2.4100001 3.8599999
-11.89 2.4100001 3.96
-11.89 2.4100001 4.0599999
-11.89 2.4100001 4.1599998
-11.89 2.4100001 4.2600002
-11.89 2.4100001 4.3600001
-11.89 2.4100001 4.46
-11.89 2.4100001 4.5599999
-11.89 2.4100001 4.6599998
-11.89 2.4100001 4.7600002
-11.89 2.4100001 4.8600001
-11.89 2.4100001 4.96
-11.89 2.51 0.059999999
-11.89 2.51 0.16
-11.89 2.51 0.25999999
-11.89 2.51 0.36000001
-11.89 2.51 0.46000001
-11.89 2.51 0.56
-11.89 2.51 0.66000003
-11.89 2.51 0.75999999
-11.89 2.51 0.86000001
-11.89 2.51 0.95999998
-11.89 2.51 1.0599999
-11.89 2.51 1.16
-11.89 2.51 1.26
-11.89 2.51 1.36
-11.89 2.51 1.46
-11.89 2.51 1.5599999
-11.89 2.51 1.66
-11.89 2.51 1.76
-11.89 2.51 1.86
-11.89 2.51 1.96
-11.89 2.51 2.0599999
-11.89 2.51 2.1600001
-11.89 2.51 2.26
-11.89 2.51 2.3599999
-11.89 2.51 2.46
-11.89 2.51 2.5599999
-11.89 2.51 2.6600001
-11.89 2.51 2.76
-11.89 2.51 2.8599999
-11.89 2.51 2.96
-11.89 2.51 3.0599999
-11.89 2.51 3.1600001
-11.89 2.51 3.26
-11.89 2.51 3.3599999
-11.89 2.51 3.46
-11.89 2.51 3.5599999
-11.89 2.51 3.6600001
-11.89 2.51 3.76
-11.89 2.51 3.8599999
-11.89 2.51 3.96
-11.89 2.51 4.0599999
-11.89 2.51 4.1599998
-11.89 2.51 4.2600002
-11.89 2.51 4.3600001
-11.89 2.51 4.46
-11.89 2.51 4.5599999
-11.89 2.51 4.6599998
-11.89 2.51 4.7600002
-11.89 2.51 4.8600001
-11.89 2.51 4.96
-11.89 2.6099999 0.059999999
-11.89 2.6099999 0.16
-11.89 2.6099999 0.25999999
-11.89 2.6099999 0.36000001
-11.89 2.6099999 0.46000001
-11.89 2.6099999 0.56
-11.89 2.6099999 0.66000003
-11.89 2.6099999 0.75999999
-11.89 2.6099999 0.86000001
-11.89 2.6099999 0.95999998
-11.89 2.6099999 1.0599999
-11.89 2.6099999 1.16
-11.89 2.6099999 1.26
-11.89 2.6099999 1.36
-11.89 2.6099999 1.46
-11.89 2.6099999 1.5599999
-11.89 2.6099999 1.66
-11.89 2.6099999 1.76
-11.89 2.6099999 1.86
-11.89 2.6099999 1.96
-11.89 2.6099999 2.0599999
-11.89 2.6099999 2.1600001
-11.89 2.6099999 2.26
-11.89 2.6099999 2.3599999
-11.89 2.6099999 2.46
-11.89 2.6099999 2.5599999
-11.89 2.6099999 2.6600001
-11.89 2.6099999 2.76
-11.89 2.6099999 2.8599999
-11.89 2.6099999 2.96
-11.89 2.6099999 3.0599999
-11.89 2.6099999 3.1600001
-11.89 2.6099999 3.26
-11.89 2.6099999 3.3599999
-11.89 2.6099999 3.46
-11.89 2.6099999 3.5599999
-11.89 2.6099999 3.6600001
-11.89 2.6099999 3.76
-11.89 2.6099999 3.8599999
-11.89 2.6099999 3.96
-11.89 2.6099999 4.0599999
-11.89 2.6099999 4.1599998
-11.89 2.6099999 4.2600002
-11.89 2.6099999 4.3600001
-11.89 2.6099999 4.46
-11.89 2.6099999 4.5599999
-11.89 2.6099999 4.6599998
-11.89 2.6099999 4.7600002
-11.89 2.6099999 4.8600001
-11.89 2.6099999 4.96
-11.79 2.4100001 0.059999999
-11.79 2.4100001 0.16
-11.79 2.4100001 0.25999999
-11.79 2.4100001 0.36000001
-11.79 2.4100001 0.46000001
-11.79 2.4100001 0.56
-11.79 2.4100001 0.66000003
-11.79 2.4100001 0.75999999
-11.79 2.4100001 0.86000001
-11.79 2.4100001 0.95999998
-11.79 2.4100001 1.0599999
-11.79 2.4100001 1.16
-11.79 2.4100001 1.26
-11.79 2.4100001 1.36
-11.79 2.4100001 1.46
-11.79 2.4100001 1.5599999
-11.79 2.4100001 1.66
-11.79 2.4100001 1.76
-11.79 2.4100001 1.86
-11.79 2.4100001 1.96
-11.79 2.4100001 2.0599999
-11.79 2.4100001 2.1600001
-11.79 2.4100001 2.26
-11.79 2.4100001 2.3599999
-11.79 2.4100001 2.46
-11.79 2.4100001 2.5599999
-11.79 2.4100001 2.6600001
-11.79 2.4100001 2.76
-11.79 2.4100001 2.8599999
-11.79 2.4100001 2.96
-11.79 2.4100001 3.0599999
-11.79 2.4100001 3.1600001
-11.79 2.4100001 3.26
-11.79 2.4100001 3.3599999
-11.79 2.4100001 3.46
-11.79 2.4100001 3.5599999
-11.79 2.4100001 3.6600001
-11.79 2.4100001 3.76
-11.79 2.4100001 3.8599999
-11.79 2.4100001 3.96
-11.79 2.4100001 4.0599999
-11.79 2.4100001 4.1599998
-11.79 2.4100001 4.2600002
