# .PCD v0.7 - Point Cloud Data file format
VERSION 0.7
FIELDS x y z
SIZE 4 4 4
TYPE F F F
COUNT 1 1 1
WIDTH 1935
HEIGHT 1
VIEWPOINT 0 0 0 1 0 0 0
POINTS 1935
DATA ascii
-7.29 -3.0899999 0.25999999
-7.29 -3.0899999 0.36000001
-7.29 -3.0899999 0.46000001
-7.29 -3.0899999 0.56
-7.29 -3.0899999 0.66000003
-7.29 -3.0899999 0.75999999
-7.29 -3.0899999 0.86000001
-7.29 -3.0899999 0.95999998
-7.29 -3.0899999 1.0599999
-7.29 -3.0899999 1.16
-7.29 -3.0899999 1.26
-7.29 -3.0899999 1.36
-7.29 -3.0899999 1.46
-7.29 -3.0899999 1.5599999
-7.29 -3.0899999 1.66
-7.29 -3.0899999 1.76
-7.29 -3.0899999 1.86
-7.29 -3.0899999 1.96
-7.29 -3.0899999 2.0599999
-7.29 -3.0899999 2.1600001
-7.29 -3.0899999 2.26
-7.29 -3.0899999 2.3599999
-7.29 -3.0899999 2.46
-7.29 -3.0899999 2.5599999
-7.29 -3.0899999 2.6600001
-7.29 -3.0899999 2.76
-7.29 -3.0899999 2.8599999
-7.29 -3.0899999 2.96
-7.29 -3.0899999 3.0599999
-7.29 -3.0899999 3.1600001
-7.29 -3.0899999 3.26
-7.29 -3.0899999 3.3599999
-7.29 -3.0899999 3.46
-7.29 -3.0899999 3.5599999
-7.29 -3.0899999 3.6600001
-7.29 -3.0899999 3.76
-7.29 -3.0899999 3.8599999
-7.29 -3.0899999 3.96
-7.29 -3.0899999 4.0599999
-7.29 -3.0899999 4.1599998
-7.29 -3.0899999 4.2600002
-7.29 -3.0899999 4.3600001
-7.29 -3.0899999 4.46
-7.29 -3.0899999 4.5599999
-7.29 -3.0899999 4.6599998
-7.29 -3.0899999 4.7600002
-7.29 -3.0899999 4.8600001
-7.29 -3.0899999 4.96
-7.29 -2.99 0.059999999
-7.29 -2.99 0.16
-7.29 -2.99 0.25999999
-7.29 -2.99 0.36000001
-7.29 -2.99 0.46000001
-7.29 -2.99 0.56
-7.29 -2.99 0.66000003
-7.29 -2.99 0.75999999
-7.29 -2.99 0.86000001
-7.29 -2.99 0.95999998
-7.29 -2.99 1.0599999
-7.29 -2.99 1.16
-7.29 -2.99 1.26
-7.29 -2.99 1.36
-7.29 -2.99 1.46
-7.29 -2.99 1.5599999
-7.29 -2.99 1.66
-7.29 -2.99 1.76
-7.29 -2.99 1.86
-7.29 -2.99 1.96
-7.29 -2.99 2.0599999
-7.29 -2.99 2.1600001
-7.29 -2.99 2.26
-7.29 -2.99 2.3599999
-7.29 -2.99 2.46
-7.29 -2.99 2.5599999
-7.29 -2.99 2.6600001
-7.29 -2.99 2.76
-7.29 -2.99 2.8599999
-7.29 -2.99 2.96
-7.29 -2.99 3.0599999
-7.29 -2.99 3.1600001
-7.29 -2.99 3.26
-7.29 -2.99 3.3599999
-7.29 -2.99 3.46
-7.29 -2.99 3.5599999
-7.29 -2.99 3.6600001
-7.29 -2.99 3.76
-7.29 -2.99 3.8599999
-7.29 -2.99 3.96
-7.29 -2.99 4.0599999
-7.29 -2.99 4.1599998
-7.29 -2.99 4.2600002
-7.29 -2.99 4.3600001
-7.29 -2.99 4.46
-7.29 -2.99 4.5599999
-7.29 -2.99 4.6599998
-7.29 -2.99 4.7600002
-7.29 -2.99 4.8600001
-7.29 -2.99 4.96
-1.6900001 1.71 0.059999999
-1.6900001 1.71 0.16
-1.6900001 1.71 0.25999999
-1.6900001 1.71 0.36000001
-1.6900001 1.71 0.46000001
-1.6900001 1.71 0.56
-1.6900001 1.71 0.66000003
-1.6900001 1.71 0.75999999
-1.6900001 1.71 0.86000001
-1.6900001 1.71 0.95999998
-1.6900001 1.71 1.0599999
-1.6900001 1.71 1.16
-1.6900001 1.71 1.26
-1.6900001 1.71 1.36
-1.6900001 1.71 1.46
-1.6900001 1.71 1.5599999
-1.6900001 1.71 1.66
-1.6900001 1.71 1.76
-1.6900001 1.71 1.86
-1.6900001 1.71 1.96
-1.6900001 1.71 2.0599999
-1.6900001 1.71 2.1600001
-1.6900001 1.71 2.26
-1.6900001 1.71 2.3599999
-1.6900001 1.71 2.46
-1.6900001 1.71 2.5599999
-1.6900001 1.71 2.6600001
-1.6900001 1.71 2.76
-1.6900001 1.71 2.8599999
-1.6900001 1.71 2.96
-1.6900001 1.71 3.0599999
-1.6900001 1.71 3.1600001
-1.6900001 1.71 3.26
-1.6900001 1.71 3.3599999
-1.6900001 1.71 3.46
-1.6900001 1.71 3.5599999
-1.6900001 1.71 3.6600001
-1.6900001 1.71 3.76
-1.6900001 1.71 3.8599999
-1.6900001 1.71 3.96
-1.6900001 1.71 4.0599999
-1.6900001 1.71 4.1599998
-1.6900001 1.71 4.2600002
-1.6900001 1.71 4.3600001
-1.6900001 1.71 4.46
-1.6900001 1.71 4.5599999
-1.6900001 1.71 4.6599998
-1.6900001 1.71 4.7600002
-1.6900001 1.71 4.8600001
-1.6900001 1.71 4.96
-1.6900001 1.8099999 0.059999999
-1.6900001 1.8099999 0.16
-1.6900001 1.8099999 0.25999999
-1.6900001 1.8099999 0.36000001
-1.6900001 1.8099999 0.46000001
-1.6900001 1.8099999 0.56
-1.6900001 1.8099999 0.66000003
-1.6900001 1.8099999 0.75999999
-1.6900001 1.8099999 0.86000001
-1.6900001 1.8099999 0.95999998
-1.6900001 1.8099999 1.0599999
-1.6900001 1.8099999 1.16
-1.6900001 1.8099999 1.26
-1.6900001 1.8099999 1.36
-1.6900001 1.8099999 1.46
-1.6900001 1.8099999 1.5599999
-1.6900001 1.8099999 1.66
-1.6900001 1.8099999 1.76
-1.6900001 1.8099999 1.86
-1.6900001 1.8099999 1.96
-1.6900001 1.8099999 2.0599999
-1.6900001 1.8099999 2.1600001
-1.6900001 1.8099999 2.26
-1.6900001 1.8099999 2.3599999
-1.6900001 1.8099999 2.46
-1.6900001 1.8099999 2.5599999
-1.6900001 1.8099999 2.6600001
-1.6900001 1.8099999 2.76
-1.6900001 1.8099999 2.8599999
-1.6900001 1.8099999 2.96
-1.6900001 1.8099999 3.0599999
-1.6900001 1.8099999 3.1600001
-1.6900001 1.8099999 3.26
-1.6900001 1.8099999 3.3599999
-1.6900001 1.8099999 3.46
-1.6900001 1.8099999 3.5599999
-1.6900001 1.8099999 3.6600001
-1.6900001 1.8099999 3.76
-1.6900001 1.8099999 3.8599999
-1.6900001 1.8099999 3.96
-1.6900001 1.8099999 4.0599999
-1.6900001 1.8099999 4.1599998
-1.6900001 1.8099999 4.2600002
-1.6900001 1.8099999 4.3600001
-1.6900001 1.8099999 4.46
-1.6900001 1.8099999 4.5599999
-1.6900001 1.8099999 4.6599998
-1.6900001 1.8099999 4.7600002
-1.6900001 1.8099999 4.8600001
-1.6900001 1.8099999 4.96
-1.59 1.61 0.059999999
-1.59 1.61 0.16
-1.59 1.61 0.25999999
-1.59 1.61 0.36000001
-1.59 1.61 0.46000001
-1.59 1.61 0.56
-1.59 1.61 0.66000003
-1.59 1.61 0.75999999
-1.59 1.61 0.86000001
-1.59 1.61 0.95999998
-1.59 1.61 1.0599999
-1.59 1.61 1.16
-1.59 1.61 1.26
-1.59 1.61 1.36
-1.59 1.61 1.46
-1.59 1.61 1.5599999
-1.59 1.61 1.66
-1.59 1.61 1.76
-1.59 1.61 1.86
-1.59 1.61 1.96
-1.59 1.61 2.0599999
-1.59 1.61 2.1600001
-1.59 1.61 2.26
-1.59 1.61 2.3599999
-1.59 1.61 2.46
-1.59 1.61 2.5599999
-1.59 1.61 2.6600001
-1.59 1.61 2.76
-1.59 1.61 2.8599999
-1.59 1.61 2.96
-1.59 1.61 3.0599999
-1.59 1.61 3.1600001
-1.59 1.61 3.26
-1.59 1.61 3.3599999
-1.59 1.61 3.46
-1.59 1.61 3.5599999
-1.59 1.61 3.6600001
-1.59 1.61 3.76
-1.59 1.61 3.8599999
-1.59 1.61 3.96
-1.59 1.61 4.0599999
-1.59 1.61 4.1599998
-1.59 1.61 4.2600002
-1.59 1.61 4.3600001
-1.59 1.61 4.46
-1.59 1.61 4.5599999
-1.59 1.61 4.6599998
-1.59 1.61 4.7600002
-1.59 1.61 4.8600001
-1.59 1.61 4.96
-1.59 1.71 0.059999999
-1.59 1.71 0.16
-1.59 1.71 0.25999999
-1.59 1.71 0.36000001
-1.59 1.71 0.46000001
-1.59 1.71 0.56
-1.59 1.71 0.66000003
-1.59 1.71 0.75999999
-1.59 1.71 0.86000001
-1.59 1.71 0.95999998
-1.59 1.71 1.0599999
-1.59 1.71 1.16
-1.59 1.71 1.26
-1.59 1.71 1.36
-1.59 1.71 1.46
-1.59 1.71 1.5599999
-1.59 1.71 1.66
-1.59 1.71 1.76
-1.59 1.71 1.86
-1.59 1.71 1.96
-1.59 1.71 2.0599999
-1.59 1.71 2.1600001
-1.59 1.71 2.26
-1.59 1.71 2.3599999
-1.59 1.71 2.46
-1.59 1.71 2.5599999
-1.59 1.71 2.6600001
-1.59 1.71 2.76
-1.59 1.71 2.8599999
-1.59 1.71 2.96
-1.59 1.71 3.0599999
-1.59 1.71 3.1600001
-1.59 1.71 3.26
-1.59 1.71 3.3599999
-1.59 1.71 3.46
-1.59 1.71 3.5599999
-1.59 1.71 3.6600001
-1.59 1.71 3.76
-1.59 1.71 3.8599999
-1.59 1.71 3.96
-1.59 1.71 4.0599999
-1.59 1.71 4.1599998
-1.59 1.71 4.2600002
-1.59 1.71 4.3600001
-1.59 1.71 4.46
-1.59 1.71 4.5599999
-1.59 1.71 4.6599998
-1.59 1.71 4.7600002
-1.59 1.71 4.8600001
-1.59 1.71 4.96
-1.59 1.8099999 0.059999999
-1.59 1.8099999 0.16
-1.59 1.8099999 0.25999999
-1.59 1.8099999 0.36000001
-1.59 1.8099999 0.46000001
-1.59 1.8099999 0.56
-1.59 1.8099999 0.66000003
-1.59 1.8099999 0.75999999
-1.59 1.8099999 0.86000001
-1.59 1.8099999 0.95999998
-1.59 1.8099999 1.0599999
-1.59 1.8099999 1.16
-1.59 1.8099999 1.26
-1.59 1.8099999 1.36
-1.59 1.8099999 1.46
-1.59 1.8099999 1.5599999
-1.59 1.8099999 1.66
-1.59 1.8099999 1.76
-1.59 1.8099999 1.86
-1.59 1.8099999 1.96
-1.59 1.8099999 2.0599999
-1.59 1.8099999 2.1600001
-1.59 1.8099999 2.26
-1.59 1.8099999 2.3599999
-1.59 1.8099999 2.46
-1.59 1.8099999 2.5599999
-1.59 1.8099999 2.6600001
-1.59 1.8099999 2.76
-1.59 1.8099999 2.8599999
-1.59 1.8099999 2.96
-1.59 1.8099999 3.0599999
-1.59 1.8099999 3.1600001
-1.59 1.8099999 3.26
-1.59 1.8099999 3.3599999
-1.59 1.8099999 3.46
-1.59 1.8099999 3.5599999
-1.59 1.8099999 3.6600001
-1.59 1.8099999 3.76
-1.59 1.8099999 3.8599999
-1.59 1.8099999 3.96
-1.59 1.8099999 4.0599999
-1.59 1.8099999 4.1599998
-1.59 1.8099999 4.2600002
-1.59 1.8099999 4.3600001
-1.59 1.8099999 4.46
-1.59 1.8099999 4.5599999
-1.59 1.8099999 4.6599998
-1.59 1.8099999 4.7600002
-1.59 1.8099999 4.8600001
-1.59 1.8099999 4.96
-1.59 1.91 0.059999999
-1.59 1.91 0.16
-1.59 1.91 0.25999999
-1.59 1.91 0.36000001
-1.59 1.91 0.46000001
-1.59 1.91 0.56
-1.59 1.91 0.66000003
-1.59 1.91 0.75999999
-1.59 1.91 0.86000001
-1.59 1.91 0.95999998
-1.59 1.91 1.0599999
-1.59 1.91 1.16
-1.59 1.91 1.26
-1.59 1.91 1.36
-1.59 1.91 1.46
-1.59 1.91 1.5599999
-1.59 1.91 1.66
-1.59 1.91 1.76
-1.59 1.91 1.86
-1.59 1.91 1.96
-1.59 1.91 2.0599999
-1.59 1.91 2.1600001
-1.59 1.91 2.26
-1.59 1.91 2.3599999
-1.59 1.91 2.46
-1.59 1.91 2.5599999
-1.59 1.91 2.6600001
-1.59 1.91 2.76
-1.59 1.91 2.8599999
-1.59 1.91 2.96
-1.59 1.91 3.0599999
-1.59 1.91 3.1600001
-1.59 1.91 3.26
-1.59 1.91 3.3599999
-1.59 1.91 3.46
-1.59 1.91 3.5599999
-1.59 1.91 3.6600001
-1.59 1.91 3.76
-1.59 1.91 3.8599999
-1.59 1.91 3.96
-1.59 1.91 4.0599999
-1.59 1.91 4.1599998
-1.59 1.91 4.2600002
-1.59 1.91 4.3600001
-1.59 1.91 4.46
-1.59 1.91 4.5599999
-1.59 1.91 4.6599998
-1.59 1.91 4.7600002
-1.59 1.91 4.8600001
-1.59 1.91 4.96
-1.49 1.61 0.059999999
-1.49 1.61 0.16
-1.49 1.61 0.25999999
-1.49 1.61 0.36000001
-1.49 1.61 0.46000001
-1.49 1.61 0.56
-1.49 1.61 0.66000003
-1.49 1.61 0.75999999
-1.49 1.61 0.86000001
-1.49 1.61 0.95999998
-1.49 1.61 1.0599999
-1.49 1.61 1.16
-1.49 1.61 1.26
-1.49 1.61 1.36
-1.49 1.61 1.46
-1.49 1.61 1.5599999
-1.49 1.61 1.66
-1.49 1.61 1.76
-1.49 1.61 1.86
-1.49 1.61 1.96
-1.49 1.61 2.0599999
-1.49 1.61 2.1600001
-1.49 1.61 2.26
-1.49 1.61 2.3599999
-1.49 1.61 2.46
-1.49 1.61 2.5599999
-1.49 1.61 2.6600001
-1.49 1.61 2.76
-1.49 1.61 2.8599999
-1.49 1.61 2.96
-1.49 1.61 3.0599999
-1.49 1.61 3.1600001
-1.49 1.61 3.26
-1.49 1.61 3.3599999
-1.49 1.61 3.46
-1.49 1.61 3.5599999
-1.49 1.61 3.6600001
-1.49 1.61 3.76
-1.49 1.61 3.8599999
-1.49 1.61 3.96
-1.49 1.61 4.0599999
-1.49 1.61 4.1599998
-1.49 1.61 4.2600002
-1.49 1.61 4.3600001
-1.49 1.61 4.46
-1.49 1.61 4.5599999
-1.49 1.61 4.6599998
-1.49 1.61 4.7600002
-1.49 1.61 4.8600001
-1.49 1.61 4.96
-1.49 1.71 0.059999999
-1.49 1.71 0.16
-1.49 1.71 0.25999999
-1.49 1.71 0.36000001
-1.49 1.71 0.46000001
-1.49 1.71 0.56
-1.49 1.71 0.66000003
-1.49 1.71 0.75999999
-1.49 1.71 0.86000001
-1.49 1.71 0.95999998
-1.49 1.71 1.0599999
-1.49 1.71 1.16
-1.49 1.71 1.26
-1.49 1.71 1.36
-1.49 1.71 1.46
-1.49 1.71 1.5599999
-1.49 1.71 1.66
-1.49 1.71 1.76
-1.49 1.71 1.86
-1.49 1.71 1.96
-1.49 1.71 2.0599999
-1.49 1.71 2.1600001
-1.49 1.71 2.26
-1.49 1.71 2.3599999
-1.49 1.71 2.46
-1.49 1.71 2.5599999
-1.49 1.71 2.6600001
-1.49 1.71 2.76
-1.49 1.71 2.8599999
-1.49 1.71 2.96
-1.49 1.71 3.0599999
-1.49 1.71 3.1600001
-1.49 1.71 3.26
-1.49 1.71 3.3599999
-1.49 1.71 3.46
-1.49 1.71 3.5599999
-1.49 1.71 3.6600001
-1.49 1.71 3.76
-1.49 1.71 3.8599999
-1.49 1.71 3.96
-1.49 1.71 4.0599999
-1.49 1.71 4.1599998
-1.49 1.71 4.2600002
-1.49 1.71 4.3600001
-1.49 1.71 4.46
-1.49 1.71 4.5599999
-1.49 1.71 4.6599998
-1.49 1.71 4.7600002
-1.49 1.71 4.8600001
-1.49 1.71 4.96
-1.49 1.8099999 0.059999999
-1.49 1.8099999 0.16
-1.49 1.8099999 0.25999999
-1.49 1.8099999 0.36000001
-1.49 1.8099999 0.46000001
-1.49 1.8099999 0.56
-1.49 1.8099999 0.66000003
-1.49 1.8099999 0.75999999
-1.49 1.8099999 0.86000001
-1.49 1.8099999 0.95999998
-1.49 1.8099999 1.0599999
-1.49 1.8099999 1.16
-1.49 1.8099999 1.26
-1.49 1.8099999 1.36
-1.49 1.8099999 1.46
-1.49 1.8099999 1.5599999
-1.49 1.8099999 1.66
-1.49 1.8099999 1.76
-1.49 1.8099999 1.86
-1.49 1.8099999 1.96
-1.49 1.8099999 2.0599999
-1.49 1.8099999 2.1600001
-1.49 1.8099999 2.26
-1.49 1.8099999 2.3599999
-1.49 1.8099999 2.46
-1.49 1.8099999 2.5599999
-1.49 1.8099999 2.6600001
-1.49 1.8099999 2.76
-1.49 1.8099999 2.8599999
-1.49 1.8099999 2.96
-1.49 1.8099999 3.0599999
-1.49 1.8099999 3.1600001
-1.49 1.8099999 3.26
-1.49 1.8099999 3.3599999
-1.49 1.8099999 3.46
-1.49 1.8099999 3.5599999
-1.49 1.8099999 3.6600001
-1.49 1.8099999 3.76
-1.49 1.8099999 3.8599999
-1.49 1.8099999 3.96
-1.49 1.8099999 4.0599999
-1.49 1.8099999 4.1599998
-1.49 1.8099999 4.2600002
-1.49 1.8099999 4.3600001
-1.49 1.8099999 4.46
-1.49 1.8099999 4.5599999
-1.49 1.8099999 4.6599998
-1.49 1.8099999 4.7600002
-1.49 1.8099999 4.8600001
-1.49 1.8099999 4.96
-1.49 1.91 0.059999999
-1.49 1.91 0.16
-1.49 1.91 0.25999999
-1.49 1.91 0.36000001
-1.49 1.91 0.46000001
-1.49 1.91 0.56
-1.49 1.91 0.66000003
-1.49 1.91 0.75999999
-1.49 1.91 0.86000001
-1.49 1.91 0.95999998
-1.49 1.91 1.0599999
-1.49 1.91 1.16
-1.49 1.91 1.26
-1.49 1.91 1.36
-1.49 1.91 1.46
-1.49 1.91 1.5599999
-1.49 1.91 1.66
-1.49 1.91 1.76
-1.49 1.91 1.86
-1.49 1.91 1.96
-1.49 1.91 2.0599999
-1.49 1.91 2.1600001
-1.49 1.91 2.26
-1.49 1.91 2.3599999
-1.49 1.91 2.46
-1.49 1.91 2.5599999
-1.49 1.91 2.6600001
-1.49 1.91 2.76
-1.49 1.91 2.8599999
-1.49 1.91 2.96
-1.49 1.91 3.0599999
-1.49 1.91 3.1600001
-1.49 1.91 3.26
-1.49 1.91 3.3599999
-1.49 1.91 3.46
-1.49 1.91 3.5599999
-1.49 1.91 3.6600001
-1.49 1.91 3.76
-1.49 1.91 3.8599999
-1.49 1.91 3.96
-1.49 1.91 4.0599999
-1.49 1.91 4.1599998
-1.49 1.91 4.2600002
-1.49 1.91 4.3600001
-1.49 1.91 4.46
-1.49 1.91 4.5599999
-1.49 1.91 4.6599998
-1.49 1.91 4.7600002
-1.49 1.91 4.8600001
-1.49 1.91 4.96
-1.39 1.71 0.059999999
-1.39 1.71 0.16
-1.39 1.71 0.25999999
-1.39 1.71 0.36000001
-1.39 1.71 0.46000001
-1.39 1.71 0.56
-1.39 1.71 0.66000003
-1.39 1.71 0.75999999
-1.39 1.71 0.86000001
-1.39 1.71 0.95999998
-1.39 1.71 1.0599999
-1.39 1.71 1.16
-1.39 1.71 1.26
-1.39 1.71 1.36
-1.39 1.71 1.46
-1.39 1.71 1.5599999
-1.39 1.71 1.66
-1.39 1.71 1.76
-1.39 1.71 1.86
-1.39 1.71 1.96
-1.39 1.71 2.0599999
-1.39 1.71 2.1600001
-1.39 1.71 2.26
-1.39 1.71 2.3599999
-1.39 1.71 2.46
-1.39 1.71 2.5599999
-1.39 1.71 2.6600001
-1.39 1.71 2.76
-1.39 1.71 2.8599999
-1.39 1.71 2.96
-1.39 1.71 3.0599999
-1.39 1.71 3.1600001
-1.39 1.71 3.26
-1.39 1.71 3.3599999
-1.39 1.71 3.46
-1.39 1.71 3.5599999
-1.39 1.71 3.6600001
-1.39 1.71 3.76
-1.39 1.71 3.8599999
-1.39 1.71 3.96
-1.39 1.71 4.0599999
-1.39 1.71 4.1599998
-1.39 1.71 4.2600002
-1.39 1.71 4.3600001
-1.39 1.71 4.46
-1.39 1.71 4.5599999
-1.39 1.71 4.6599998
-1.39 1.71 4.7600002
-1.39 1.71 4.8600001
-1.39 1.71 4.96
-1.39 1.8099999 0.059999999
-1.39 1.8099999 0.16
-1.39 1.8099999 0.25999999
-1.39 1.8099999 0.36000001
-1.39 1.8099999 0.46000001
-1.39 1.8099999 0.56
-1.39 1.8099999 0.66000003
-1.39 1.8099999 0.75999999
-1.39 1.8099999 0.86000001
-1.39 1.8099999 0.95999998
-1.39 1.8099999 1.0599999
-1.39 1.8099999 1.16
-1.39 1.8099999 1.26
-1.39 1.8099999 1.36
-1.39 1.8099999 1.46
-1.39 1.8099999 1.5599999
-1.39 1.8099999 1.66
-1.39 1.8099999 1.76
-1.39 1.8099999 1.86
-1.39 1.8099999 1.96
-1.39 1.8099999 2.0599999
-1.39 1.8099999 2.1600001
-1.39 1.8099999 2.26
-1.39 1.8099999 2.3599999
-1.39 1.8099999 2.46
-1.39 1.8099999 2.5599999
-1.39 1.8099999 2.6600001
-1.39 1.8099999 2.76
-1.39 1.8099999 2.8599999
-1.39 1.8099999 2.96
-1.39 1.8099999 3.0599999
-1.39 1.8099999 3.1600001
-1.39 1.8099999 3.26
-1.39 1.8099999 3.3599999
-1.39 1.8099999 3.46
-1.39 1.8099999 3.5599999
-1.39 1.8099999 3.6600001
-1.39 1.8099999 3.76
-1.39 1.8099999 3.8599999
-1.39 1.8099999 3.96
-1.39 1.8099999 4.0599999
-1.39 1.8099999 4.1599998
-1.39 1.8099999 4.2600002
-1.39 1.8099999 4.3600001
-1.39 1.8099999 4.46
-1.39 1.8099999 4.5599999
-1.39 1.8099999 4.6599998
-1.39 1.8099999 4.7600002
-1.39 1.8099999 4.8600001
-1.39 1.8099999 4.96
-5.79 3.8099999 0.059999999
-5.79 3.8099999 0.16
-5.79 3.8099999 0.25999999
-5.79 3.8099999 0.36000001
-5.79 3.8099999 0.46000001
-5.79 3.8099999 0.56
-5.79 3.8099999 0.66000003
-5.79 3.8099999 0.75999999
-5.79 3.8099999 0.86000001
-5.79 3.8099999 0.95999998
-5.79 3.8099999 1.0599999
-5.79 3.8099999 1.16
-5.79 3.8099999 1.26
-5.79 3.8099999 1.36
-5.79 3.8099999 1.46
-5.79 3.8099999 1.5599999
-5.79 3.8099999 1.66
-5.79 3.8099999 1.76
-5.79 3.8099999 1.86
-5.79 3.8099999 1.96
-5.79 3.8099999 2.0599999
-5.79 3.8099999 2.1600001
-5.79 3.8099999 2.26
-5.79 3.8099999 2.3599999
-5.79 3.8099999 2.46
-5.79 3.8099999 2.5599999
-5.79 3.8099999 2.6600001
-5.79 3.8099999 2.76
-5.79 3.8099999 2.8599999
-5.79 3.8099999 2.96
-5.79 3.8099999 3.0599999
-5.79 3.8099999 3.1600001
-5.79 3.8099999 3.26
-5.79 3.8099999 3.3599999
-5.79 3.8099999 3.46
-5.79 3.8099999 3.5599999
-5.79 3.8099999 3.6600001
-5.79 3.8099999 3.76
-5.79 3.8099999 3.8599999
-5.79 3.8099999 3.96
-5.79 3.8099999 4.0599999
-5.79 3.8099999 4.1599998
-5.79 3.8099999 4.2600002
-5.79 3.8099999 4.3600001
-5.79 3.8099999 4.46
-5.79 3.8099999 4.5599999
-5.79 3.8099999 4.6599998
-5.79 3.8099999 4.7600002
-5.79 3.8099999 4.8600001
-5.79 3.8099999 4.96
-5.79 3.9100001 0.059999999
-5.79 3.9100001 0.16
-5.79 3.9100001 0.25999999
-5.79 3.9100001 0.36000001
-5.79 3.9100001 0.46000001
-5.79 3.9100001 0.56
-5.79 3.9100001 0.66000003
-5.79 3.9100001 0.75999999
-5.79 3.9100001 0.86000001
-5.79 3.9100001 0.95999998
-5.79 3.9100001 1.0599999
-5.79 3.9100001 1.16
-5.79 3.9100001 1.26
-5.79 3.9100001 1.36
-5.79 3.9100001 1.46
-5.79 3.9100001 1.5599999
-5.79 3.9100001 1.66
-5.79 3.9100001 1.76
-5.79 3.9100001 1.86
-5.79 3.9100001 1.96
-5.79 3.9100001 2.0599999
-5.79 3.9100001 2.1600001
-5.79 3.9100001 2.26
-5.79 3.9100001 2.3599999
-5.79 3.9100001 2.46
-5.79 3.9100001 2.5599999
-5.79 3.9100001 2.6600001
-5.79 3.9100001 2.76
-5.79 3.9100001 2.8599999
-5.79 3.9100001 2.96
-5.79 3.9100001 3.0599999
-5.79 3.9100001 3.1600001
-5.79 3.9100001 3.26
-5.79 3.9100001 3.3599999
-5.79 3.9100001 3.46
-5.79 3.9100001 3.5599999
-5.79 3.9100001 3.6600001
-5.79 3.9100001 3.76
-5.79 3.9100001 3.8599999
-5.79 3.9100001 3.96
-5.79 3.9100001 4.0599999
-5.79 3.9100001 4.1599998
-5.79 3.9100001 4.2600002
-5.79 3.9100001 4.3600001
-5.79 3.9100001 4.46
-5.79 3.9100001 4.5599999
-5.79 3.9100001 4.6599998
-5.79 3.9100001 4.7600002
-5.79 3.9100001 4.8600001
-5.79 3.9100001 4.96
-5.6900001 3.8099999 0.059999999
-5.6900001 3.8099999 0.16
-5.6900001 3.8099999 0.25999999
-5.6900001 3.8099999 0.36000001
-5.6900001 3.8099999 0.46000001
-5.6900001 3.8099999 0.56
-5.6900001 3.8099999 0.66000003
-5.6900001 3.8099999 0.75999999
-5.6900001 3.8099999 0.86000001
-5.6900001 3.8099999 0.95999998
-5.6900001 3.8099999 1.0599999
-5.6900001 3.8099999 1.16
-5.6900001 3.8099999 1.26
-5.6900001 3.8099999 1.36
-5.6900001 3.8099999 1.46
-5.6900001 3.8099999 1.5599999
-5.6900001 3.8099999 1.66
-5.6900001 3.8099999 1.76
-5.6900001 3.8099999 1.86
-5.6900001 3.8099999 1.96
-5.6900001 3.8099999 2.0599999
-5.6900001 3.8099999 2.1600001
-5.6900001 3.8099999 2.26
-5.6900001 3.8099999 2.3599999
-5.6900001 3.8099999 2.46
-5.6900001 3.8099999 2.5599999
-5.6900001 3.8099999 2.6600001
-5.6900001 3.8099999 2.76
-5.6900001 3.8099999 2.8599999
-5.6900001 3.8099999 2.96
-5.6900001 3.8099999 3.0599999
-5.6900001 3.8099999 3.1600001
-5.6900001 3.8099999 3.26
-5.6900001 3.8099999 3.3599999
-5.6900001 3.8099999 3.46
-5.6900001 3.8099999 3.5599999
-5.6900001 3.8099999 3.6600001
-5.6900001 3.8099999 3.76
-5.6900001 3.8099999 3.8599999
-5.6900001 3.8099999 3.96
-5.6900001 3.8099999 4.0599999
-5.6900001 3.8099999 4.1599998
-5.6900001 3.8099999 4.2600002
-5.6900001 3.8099999 4.3600001
-5.6900001 3.8099999 4.46
-5.6900001 3.8099999 4.5599999
-5.6900001 3.8099999 4.6599998
-5.6900001 3.8099999 4.7600002
-5.6900001 3.8099999 4.8600001
-5.6900001 3.8099999 4.96
-5.6900001 3.9100001 0.059999999
-5.6900001 3.9100001 0.16
-5.6900001 3.9100001 0.25999999
-5.6900001 3.9100001 0.36000001
-5.6900001 3.9100001 0.46000001
-5.6900001 3.9100001 0.56
-5.6900001 3.9100001 0.66000003
-5.6900001 3.9100001 0.75999999
-5.6900001 3.9100001 0.86000001
-5.6900001 3.9100001 0.95999998
-5.6900001 3.9100001 1.0599999
-5.6900001 3.9100001 1.16
-5.6900001 3.9100001 1.26
-5.6900001 3.9100001 1.36
-5.6900001 3.9100001 1.46
-5.6900001 3.9100001 1.5599999
-5.6900001 3.9100001 1.66
-5.6900001 3.9100001 1.76
-5.6900001 3.9100001 1.86
-5.6900001 3.9100001 1.96
-5.6900001 3.9100001 2.0599999
-5.6900001 3.9100001 2.1600001
-5.6900001 3.9100001 2.26
-5.6900001 3.9100001 2.3599999
-5.6900001 3.9100001 2.46
-5.6900001 3.9100001 2.5599999
-5.6900001 3.9100001 2.6600001
-5.6900001 3.9100001 2.76
-5.6900001 3.9100001 2.8599999
-5.6900001 3.9100001 2.96
-5.6900001 3.9100001 3.0599999
-5.6900001 3.9100001 3.1600001
-5.6900001 3.9100001 3.26
-5.6900001 3.9100001 3.3599999
-5.6900001 3.9100001 3.46
-5.6900001 3.9100001 3.5599999
-5.6900001 3.9100001 3.6600001
-5.6900001 3.9100001 3.76
-5.6900001 3.9100001 3.8599999
-5.6900001 3.9100001 3.96
-5.6900001 3.9100001 4.0599999
-5.6900001 3.9100001 4.1599998
-5.6900001 3.9100001 4.2600002
-5.6900001 3.9100001 4.3600001
-5.6900001 3.9100001 4.46
-5.6900001 3.9100001 4.5599999
-5.6900001 3.9100001 4.6599998
-5.6900001 3.9100001 4.7600002
-5.6900001 3.9100001 4.8600001
-5.6900001 3.9100001 4.96
8.21 0.11 0.059999999
8.21 0.11 0.16
8.21 0.11 0.25999999
8.21 0.11 0.36000001
8.21 0.11 0.46000001
8.21 0.11 0.56
8.21 0.11 0.66000003
8.21 0.11 0.75999999
8.21 0.11 0.86000001
8.21 0.11 0.95999998
8.21 0.11 1.0599999
8.21 0.11 1.16
8.21 0.11 1.26
8.21 0.11 1.36
8.21 0.11 1.46
8.21 0.11 1.5599999
8.21 0.11 1.66
8.21 0.11 1.76
8.21 0.11 1.86
8.21 0.11 1.96
8.21 0.11 2.0599999
8.21 0.11 2.1600001
8.21 0.11 2.26
8.21 0.11 2.3599999
8.21 0.11 2.46
8.21 0.11 2.5599999
8.21 0.11 2.6600001
8.21 0.11 2.76
8.21 0.11 2.8599999
8.21 0.11 2.96
8.21 0.11 3.0599999
8.21 0.11 3.1600001
8.21 0.11 3.26
8.21 0.11 3.3599999
8.21 0.11 3.46
8.21 0.11 3.5599999
8.21 0.11 3.6600001
8.21 0.11 3.76
8.21 0.11 3.8599999
8.21 0.11 3.96
8.21 0.11 4.0599999
8.21 0.11 4.1599998
8.21 0.11 4.2600002
8.21 0.11 4.3600001
8.21 0.11 4.46
8.21 0.11 4.5599999
8.21 0.11 4.6599998
8.21 0.11 4.7600002
8.21 0.11 4.8600001
8.21 0.11 4.96
8.21 0.20999999 0.059999999
8.21 0.20999999 0.16
8.21 0.20999999 0.25999999
8.21 0.20999999 0.36000001
8.21 0.20999999 0.46000001
8.21 0.20999999 0.56
8.21 0.20999999 0.66000003
8.21 0.20999999 0.75999999
8.21 0.20999999 0.86000001
8.21 0.20999999 0.95999998
8.21 0.20999999 1.0599999
8.21 0.20999999 1.16
8.21 0.20999999 1.26
8.21 0.20999999 1.36
8.21 0.20999999 1.46
8.21 0.20999999 1.5599999
8.21 0.20999999 1.66
8.21 0.20999999 1.76
8.21 0.20999999 1.86
8.21 0.20999999 1.96
8.21 0.20999999 2.0599999
8.21 0.20999999 2.1600001
8.21 0.20999999 2.26
8.21 0.20999999 2.3599999
8.21 0.20999999 2.46
8.21 0.20999999 2.5599999
8.21 0.20999999 2.6600001
8.21 0.20999999 2.76
8.21 0.20999999 2.8599999
8.21 0.20999999 2.96
8.21 0.20999999 3.0599999
8.21 0.20999999 3.1600001
8.21 0.20999999 3.26
8.21 0.20999999 3.3599999
8.21 0.20999999 3.46
8.21 0.20999999 3.5599999
8.21 0.20999999 3.6600001
8.21 0.20999999 3.76
8.21 0.20999999 3.8599999
8.21 0.20999999 3.96
8.21 0.20999999 4.0599999
8.21 0.20999999 4.1599998
8.21 0.20999999 4.2600002
8.21 0.20999999 4.3600001
8.21 0.20999999 4.46
8.21 0.20999999 4.5599999
8.21 0.20999999 4.6599998
8.21 0.20999999 4.7600002
8.21 0.20999999 4.8600001
8.21 0.20999999 4.96
8.3100004 0.11 0.059999999
8.3100004 0.11 0.16
8.3100004 0.11 0.25999999
8.3100004 0.11 0.36000001
8.3100004 0.11 0.46000001
8.3100004 0.11 0.56
8.3100004 0.11 0.66000003
8.3100004 0.11 0.75999999
8.3100004 0.11 0.86000001
8.3100004 0.11 0.95999998
8.3100004 0.11 1.0599999
8.3100004 0.11 1.16
8.3100004 0.11 1.26
8.3100004 0.11 1.36
8.3100004 0.11 1.46
8.3100004 0.11 1.5599999
8.3100004 0.11 1.66
8.3100004 0.11 1.76
8.3100004 0.11 1.86
8.3100004 0.11 1.96
8.3100004 0.11 2.0599999
8.3100004 0.11 2.1600001
8.3100004 0.11 2.26
8.3100004 0.11 2.3599999
8.3100004 0.11 2.46
8.3100004 0.11 2.5599999
8.3100004 0.11 2.6600001
8.3100004 0.11 2.76
8.3100004 0.11 2.8599999
8.3100004 0.11 2.96
8.3100004 0.11 3.0599999
8.3100004 0.11 3.1600001
8.3100004 0.11 3.26
8.3100004 0.11 3.3599999
8.3100004 0.11 3.46
8.3100004 0.11 3.5599999
8.3100004 0.11 3.6600001
8.3100004 0.11 3.76
8.3100004 0.11 3.8599999
8.3100004 0.11 3.96
8.3100004 0.11 4.0599999
8.3100004 0.11 4.1599998
8.3100004 0.11 4.2600002
8.3100004 0.11 4.3600001
8.3100004 0.11 4.46
8.3100004 0.11 4.5599999
8.3100004 0.11 4.6599998
8.3100004 0.11 4.7600002
8.3100004 0.11 4.8600001
8.3100004 0.11 4.96
7.9099998 -5.3899999 0.059999999
7.9099998 -5.3899999 0.16
7.9099998 -5.3899999 0.25999999
7.9099998 -5.3899999 0.36000001
7.9099998 -5.3899999 0.46000001
7.9099998 -5.3899999 0.56
7.9099998 -5.3899999 0.66000003
7.9099998 -5.3899999 0.75999999
7.9099998 -5.3899999 0.86000001
7.9099998 -5.3899999 0.95999998
7.9099998 -5.3899999 1.0599999
7.9099998 -5.3899999 1.16
7.9099998 -5.3899999 1.26
7.9099998 -5.3899999 1.36
7.9099998 -5.3899999 1.46
7.9099998 -5.3899999 1.5599999
7.9099998 -5.3899999 1.66
7.9099998 -5.3899999 1.76
7.9099998 -5.3899999 1.86
7.9099998 -5.3899999 1.96
7.9099998 -5.3899999 2.0599999
7.9099998 -5.3899999 2.1600001
7.9099998 -5.3899999 2.26
7.9099998 -5.3899999 2.3599999
7.9099998 -5.3899999 2.46
7.9099998 -5.3899999 2.5599999
7.9099998 -5.3899999 2.6600001
7.9099998 -5.3899999 2.76
7.9099998 -5.3899999 2.8599999
7.9099998 -5.3899999 2.96
7.9099998 -5.3899999 3.0599999
7.9099998 -5.3899999 3.1600001
7.9099998 -5.3899999 3.26
7.9099998 -5.3899999 3.3599999
7.9099998 -5.3899999 3.46
7.9099998 -5.3899999 3.5599999
7.9099998 -5.3899999 3.6600001
7.9099998 -5.3899999 3.76
7.9099998 -5.3899999 3.8599999
7.9099998 -5.3899999 3.96
7.9099998 -5.3899999 4.0599999
7.9099998 -5.3899999 4.1599998
7.9099998 -5.3899999 4.2600002
7.9099998 -5.3899999 4.3600001
7.9099998 -5.3899999 4.46
7.9099998 -5.3899999 4.5599999
7.9099998 -5.3899999 4.6599998
7.9099998 -5.3899999 4.7600002
7.9099998 -5.3899999 4.8600001
7.9099998 -5.3899999 4.96
7.9099998 -5.29 0.059999999
7.9099998 -5.29 0.16
7.9099998 -5.29 0.25999999
7.9099998 -5.29 0.36000001
7.9099998 -5.29 0.46000001
7.9099998 -5.29 0.56
7.9099998 -5.29 0.66000003
7.9099998 -5.29 0.75999999
7.9099998 -5.29 0.86000001
7.9099998 -5.29 0.95999998
7.9099998 -5.29 1.0599999
7.9099998 -5.29 1.16
7.9099998 -5.29 1.26
7.9099998 -5.29 1.36
7.9099998 -5.29 1.46
7.9099998 -5.29 1.5599999
7.9099998 -5.29 1.66
7.9099998 -5.29 1.76
7.9099998 -5.29 1.86
7.9099998 -5.29 1.96
7.9099998 -5.29 2.0599999
7.9099998 -5.29 2.1600001
7.9099998 -5.29 2.26
7.9099998 -5.29 2.3599999
7.9099998 -5.29 2.46
7.9099998 -5.29 2.5599999
7.9099998 -5.29 2.6600001
7.9099998 -5.29 2.76
7.9099998 -5.29 2.8599999
7.9099998 -5.29 2.96
7.9099998 -5.29 3.0599999
7.9099998 -5.29 3.1600001
7.9099998 -5.29 3.26
7.9099998 -5.29 3.3599999
7.9099998 -5.29 3.46
7.9099998 -5.29 3.5599999
7.9099998 -5.29 3.6600001
7.9099998 -5.29 3.76
7.9099998 -5.29 3.8599999
7.9099998 -5.29 3.96
7.9099998 -5.29 4.0599999
7.9099998 -5.29 4.1599998
7.9099998 -5.29 4.2600002
7.9099998 -5.29 4.3600001
7.9099998 -5.29 4.46
7.9099998 -5.29 4.5599999
7.9099998 -5.29 4.6599998
7.9099998 -5.29 4.7600002
7.9099998 -5.29 4.8600001
7.9099998 -5.29 4.96
7.9099998 -5.1900001 0.059999999
7.9099998 -5.1900001 0.16
7.9099998 -5.1900001 0.25999999
7.9099998 -5.1900001 0.36000001
7.9099998 -5.1900001 0.46000001
7.9099998 -5.1900001 0.56
7.9099998 -5.1900001 0.66000003
7.9099998 -5.1900001 0.75999999
7.9099998 -5.1900001 0.86000001
7.9099998 -5.1900001 0.95999998
7.9099998 -5.1900001 1.0599999
7.9099998 -5.1900001 1.16
7.9099998 -5.1900001 1.26
7.9099998 -5.1900001 1.36
7.9099998 -5.1900001 1.46
7.9099998 -5.1900001 1.5599999
7.9099998 -5.1900001 1.66
7.9099998 -5.1900001 1.76
7.9099998 -5.1900001 1.86
7.9099998 -5.1900001 1.96
7.9099998 -5.1900001 2.0599999
7.9099998 -5.1900001 2.1600001
7.9099998 -5.1900001 2.26
7.9099998 -5.1900001 2.3599999
7.9099998 -5.1900001 2.46
7.9099998 -5.1900001 2.5599999
7.9099998 -5.1900001 2.6600001
7.9099998 -5.1900001 2.76
7.9099998 -5.1900001 2.8599999
7.9099998 -5.1900001 2.96
7.9099998 -5.1900001 3.0599999
7.9099998 -5.1900001 3.1600001
7.9099998 -5.1900001 3.26
7.9099998 -5.1900001 3.3599999
7.9099998 -5.1900001 3.46
7.9099998 -5.1900001 3.5599999
7.9099998 -5.1900001 3.6600001
7.9099998 -5.1900001 3.76
7.9099998 -5.1900001 3.8599999
7.9099998 -5.1900001 3.96
7.9099998 -5.1900001 4.0599999
7.9099998 -5.1900001 4.1599998
7.9099998 -5.1900001 4.2600002
7.9099998 -5.1900001 4.3600001
7.9099998 -5.1900001 4.46
7.9099998 -5.1900001 4.5599999
7.9099998 -5.1900001 4.6599998
7.9099998 -5.1900001 4.7600002
7.9099998 -5.1900001 4.8600001
7.9099998 -5.1900001 4.96
7.9099998 -5.0900002 0.059999999
7.9099998 -5.0900002 0.16
7.9099998 -5.0900002 0.25999999
7.9099998 -5.0900002 0.36000001
7.9099998 -5.0900002 0.46000001
7.9099998 -5.0900002 0.56
7.9099998 -5.0900002 0.66000003
7.9099998 -5.0900002 0.75999999
7.9099998 -5.0900002 0.86000001
7.9099998 -5.0900002 0.95999998
7.9099998 -5.0900002 1.0599999
7.9099998 -5.0900002 1.16
7.9099998 -5.0900002 1.26
7.9099998 -5.0900002 1.36
7.9099998 -5.0900002 1.46
7.9099998 -5.0900002 1.5599999
7.9099998 -5.0900002 1.66
7.9099998 -5.0900002 1.76
7.9099998 -5.0900002 1.86
7.9099998 -5.0900002 1.96
7.9099998 -5.0900002 2.0599999
7.9099998 -5.0900002 2.1600001
7.9099998 -5.0900002 2.26
7.9099998 -5.0900002 2.3599999
7.9099998 -5.0900002 2.46
7.9099998 -5.0900002 2.5599999
7.9099998 -5.0900002 2.6600001
7.9099998 -5.0900002 2.76
7.9099998 -5.0900002 2.8599999
7.9099998 -5.0900002 2.96
7.9099998 -5.0900002 3.0599999
7.9099998 -5.0900002 3.1600001
7.9099998 -5.0900002 3.26
7.9099998 -5.0900002 3.3599999
7.9099998 -5.0900002 3.46
7.9099998 -5.0900002 3.5599999
7.9099998 -5.0900002 3.6600001
7.9099998 -5.0900002 3.76
7.9099998 -5.0900002 3.8599999
7.9099998 -5.0900002 3.96
7.9099998 -5.0900002 4.0599999
7.9099998 -5.0900002 4.1599998
7.9099998 -5.0900002 4.2600002
7.9099998 -5.0900002 4.3600001
7.9099998 -5.0900002 4.46
7.9099998 -5.0900002 4.5599999
7.9099998 -5.0900002 4.6599998
7.9099998 -5.0900002 4.7600002
7.9099998 -5.0900002 4.8600001
7.9099998 -5.0900002 4.96
8.0100002 -5.3899999 0.059999999
8.0100002 -5.3899999 0.16
8.0100002 -5.3899999 0.25999999
8.0100002 -5.3899999 0.36000001
8.0100002 -5.3899999 0.46000001
8.0100002 -5.3899999 0.56
8.0100002 -5.3899999 0.66000003
8.0100002 -5.3899999 0.75999999
8.0100002 -5.3899999 0.86000001
8.0100002 -5.3899999 0.95999998
8.0100002 -5.3899999 1.0599999
8.0100002 -5.3899999 1.16
8.0100002 -5.3899999 1.26
8.0100002 -5.3899999 1.36
8.0100002 -5.3899999 1.46
8.0100002 -5.3899999 1.5599999
8.0100002 -5.3899999 1.66
8.0100002 -5.3899999 1.76
8.0100002 -5.3899999 1.86
8.0100002 -5.3899999 1.96
8.0100002 -5.3899999 2.0599999
8.0100002 -5.3899999 2.1600001
8.0100002 -5.3899999 2.26
8.0100002 -5.3899999 2.3599999
8.0100002 -5.3899999 2.46
8.0100002 -5.3899999 2.5599999
8.0100002 -5.3899999 2.6600001
8.0100002 -5.3899999 2.76
8.0100002 -5.3899999 2.8599999
8.0100002 -5.3899999 2.96
8.0100002 -5.3899999 3.0599999
8.0100002 -5.3899999 3.1600001
8.0100002 -5.3899999 3.26
8.0100002 -5.3899999 3.3599999
8.0100002 -5.3899999 3.46
8.0100002 -5.3899999 3.5599999
8.0100002 -5.3899999 3.6600001
8.0100002 -5.3899999 3.76
8.0100002 -5.3899999 3.8599999
8.0100002 -5.3899999 3.96
8.0100002 -5.3899999 4.0599999
8.0100002 -5.3899999 4.1599998
8.0100002 -5.3899999 4.2600002
8.0100002 -5.3899999 4.3600001
8.0100002 -5.3899999 4.46
8.0100002 -5.3899999 4.5599999
8.0100002 -5.3899999 4.6599998
8.0100002 -5.3899999 4.7600002
8.0100002 -5.3899999 4.8600001
8.0100002 -5.3899999 4.96
8.0100002 -5.29 0.059999999
8.0100002 -5.29 0.16
8.0100002 -5.29 0.25999999
8.0100002 -5.29 0.36000001
8.0100002 -5.29 0.46000001
8.0100002 -5.29 0.56
8.0100002 -5.29 0.66000003
8.0100002 -5.29 0.75999999
8.0100002 -5.29 0.86000001
8.0100002 -5.29 0.95999998
8.0100002 -5.29 1.0599999
8.0100002 -5.29 1.16
8.0100002 -5.29 1.26
8.0100002 -5.29 1.36
8.0100002 -5.29 1.46
8.0100002 -5.29 1.5599999
8.0100002 -5.29 1.66
8.0100002 -5.29 1.76
8.0100002 -5.29 1.86
8.0100002 -5.29 1.96
8.0100002 -5.29 2.0599999
8.0100002 -5.29 2.1600001
8.0100002 -5.29 2.26
8.0100002 -5.29 2.3599999
8.0100002 -5.29 2.46
8.0100002 -5.29 2.5599999
8.0100002 -5.29 2.6600001
8.0100002 -5.29 2.76
8.0100002 -5.29 2.8599999
8.0100002 -5.29 2.96
8.0100002 -5.29 3.0599999
8.0100002 -5.29 3.1600001
8.0100002 -5.29 3.26
8.0100002 -5.29 3.3599999
8.0100002 -5.29 3.46
8.0100002 -5.29 3.5599999
8.0100002 -5.29 3.6600001
8.0100002 -5.29 3.76
8.0100002 -5.29 3.8599999
8.0100002 -5.29 3.96
8.0100002 -5.29 4.0599999
8.0100002 -5.29 4.1599998
8.0100002 -5.29 4.2600002
8.0100002 -5.29 4.3600001
8.0100002 -5.29 4.46
8.0100002 -5.29 4.5599999
8.0100002 -5.29 4.6599998
8.0100002 -5.29 4.7600002
8.0100002 -5.29 4.8600001
8.0100002 -5.29 4.96
8.0100002 -5.1900001 0.059999999
8.0100002 -5.1900001 0.16
8.0100002 -5.1900001 0.25999999
8.0100002 -5.1900001 0.36000001
8.0100002 -5.1900001 0.46000001
8.0100002 -5.1900001 0.56
8.0100002 -5.1900001 0.66000003
8.0100002 -5.1900001 0.75999999
8.0100002 -5.1900001 0.86000001
8.0100002 -5.1900001 0.95999998
8.0100002 -5.1900001 1.0599999
8.0100002 -5.1900001 1.16
8.0100002 -5.1900001 1.26
8.0100002 -5.1900001 1.36
8.0100002 -5.1900001 1.46
8.0100002 -5.1900001 1.5599999
8.0100002 -5.1900001 1.66
8.0100002 -5.1900001 1.76
8.0100002 -5.1900001 1.86
8.0100002 -5.1900001 1.96
8.0100002 -5.1900001 2.0599999
8.0100002 -5.1900001 2.1600001
8.0100002 -5.1900001 2.26
8.0100002 -5.1900001 2.3599999
8.0100002 -5.1900001 2.46
8.0100002 -5.1900001 2.5599999
8.0100002 -5.1900001 2.6600001
8.0100002 -5.1900001 2.76
8.0100002 -5.1900001 2.8599999
8.0100002 -5.1900001 2.96
8.0100002 -5.1900001 3.0599999
8.0100002 -5.1900001 3.1600001
8.0100002 -5.1900001 3.26
8.0100002 -5.1900001 3.3599999
8.0100002 -5.1900001 3.46
8.0100002 -5.1900001 3.5599999
8.0100002 -5.1900001 3.6600001
8.0100002 -5.1900001 3.76
8.0100002 -5.1900001 3.8599999
8.0100002 -5.1900001 3.96
8.0100002 -5.1900001 4.0599999
8.0100002 -5.1900001 4.1599998
8.0100002 -5.1900001 4.2600002
8.0100002 -5.1900001 4.3600001
8.0100002 -5.1900001 4.46
8.0100002 -5.1900001 4.5599999
8.0100002 -5.1900001 4.6599998
8.0100002 -5.1900001 4.7600002
8.0100002 -5.1900001 4.8600001
8.0100002 -5.1900001 4.96
8.0100002 -5.0900002 0.059999999
8.0100002 -5.0900002 0.16
8.0100002 -5.0900002 0.25999999
8.0100002 -5.0900002 0.36000001
8.0100002 -5.0900002 0.46000001
8.0100002 -5.0900002 0.56
8.0100002 -5.0900002 0.66000003
8.0100002 -5.0900002 0.75999999
8.0100002 -5.0900002 0.86000001
8.0100002 -5.0900002 0.95999998
8.0100002 -5.0900002 1.0599999
8.0100002 -5.0900002 1.16
8.0100002 -5.0900002 1.26
8.0100002 -5.0900002 1.36
8.0100002 -5.0900002 1.46
8.0100002 -5.0900002 1.5599999
8.0100002 -5.0900002 1.66
8.0100002 -5.0900002 1.76
8.0100002 -5.0900002 1.86
8.0100002 -5.0900002 1.96
8.0100002 -5.0900002 2.0599999
8.0100002 -5.0900002 2.1600001
8.0100002 -5.0900002 2.26
8.0100002 -5.0900002 2.3599999
8.0100002 -5.0900002 2.46
8.0100002 -5.0900002 2.5599999
8.0100002 -5.0900002 2.6600001
8.0100002 -5.0900002 2.76
8.0100002 -5.0900002 2.8599999
8.0100002 -5.0900002 2.96
8.0100002 -5.0900002 3.0599999
8.0100002 -5.0900002 3.1600001
8.0100002 -5.0900002 3.26
8.0100002 -5.0900002 3.3599999
8.0100002 -5.0900002 3.46
8.0100002 -5.0900002 3.5599999
8.0100002 -5.0900002 3.6600001
8.0100002 -5.0900002 3.76
8.0100002 -5.0900002 3.8599999
8.0100002 -5.0900002 3.96
8.0100002 -5.0900002 4.0599999
8.0100002 -5.0900002 4.1599998
8.0100002 -5.0900002 4.2600002
8.0100002 -5.0900002 4.3600001
8.0100002 -5.0900002 4.46
8.0100002 -5.0900002 4.5599999
8.0100002 -5.0900002 4.6599998
8.0100002 -5.0900002 4.7600002
8.0100002 -5.0900002 4.8600001
8.0100002 -5.0900002 4.96
8.1099997 -5.3899999 0.059999999
8.1099997 -5.3899999 0.16
8.1099997 -5.3899999 0.25999999
8.1099997 -5.3899999 0.36000001
8.1099997 -5.3899999 0.46000001
8.1099997 -5.3899999 0.56
8.1099997 -5.3899999 0.66000003
8.1099997 -5.3899999 0.75999999
8.1099997 -5.3899999 0.86000001
8.1099997 -5.3899999 0.95999998
8.1099997 -5.3899999 1.0599999
8.1099997 -5.3899999 1.16
8.1099997 -5.3899999 1.26
8.1099997 -5.3899999 1.36
8.1099997 -5.3899999 1.46
8.1099997 -5.3899999 1.5599999
8.1099997 -5.3899999 1.66
8.1099997 -5.3899999 1.76
8.1099997 -5.3899999 1.86
8.1099997 -5.3899999 1.96
8.1099997 -5.3899999 2.0599999
8.1099997 -5.3899999 2.1600001
8.1099997 -5.3899999 2.26
8.1099997 -5.3899999 2.3599999
8.1099997 -5.3899999 2.46
8.1099997 -5.3899999 2.5599999
8.1099997 -5.3899999 2.6600001
8.1099997 -5.3899999 2.76
8.1099997 -5.3899999 2.8599999
8.1099997 -5.3899999 2.96
8.1099997 -5.3899999 3.0599999
8.1099997 -5.3899999 3.1600001
8.1099997 -5.3899999 3.26
8.1099997 -5.3899999 3.3599999
8.1099997 -5.3899999 3.46
8.1099997 -5.3899999 3.5599999
8.1099997 -5.3899999 3.6600001
8.1099997 -5.3899999 3.76
8.1099997 -5.3899999 3.8599999
8.1099997 -5.3899999 3.96
8.1099997 -5.3899999 4.0599999
8.1099997 -5.3899999 4.1599998
8.1099997 -5.3899999 4.2600002
8.1099997 -5.3899999 4.3600001
8.1099997 -5.3899999 4.46
8.1099997 -5.3899999 4.5599999
8.1099997 -5.3899999 4.6599998
8.1099997 -5.3899999 4.7600002
8.1099997 -5.3899999 4.8600001
8.1099997 -5.3899999 4.96
8.1099997 -5.29 0.059999999
8.1099997 -5.29 0.16
8.1099997 -5.29 0.25999999
8.1099997 -5.29 0.36000001
8.1099997 -5.29 0.46000001
8.1099997 -5.29 0.56
8.1099997 -5.29 0.66000003
8.1099997 -5.29 0.75999999
8.1099997 -5.29 0.86000001
8.1099997 -5.29 0.95999998
8.1099997 -5.29 1.0599999
8.1099997 -5.29 1.16
8.1099997 -5.29 1.26
8.1099997 -5.29 1.36
8.1099997 -5.29 1.46
8.1099997 -5.29 1.5599999
8.1099997 -5.29 1.66
8.1099997 -5.29 1.76
8.1099997 -5.29 1.86
8.1099997 -5.29 1.96
8.1099997 -5.29 2.0599999
8.1099997 -5.29 2.1600001
8.1099997 -5.29 2.26
8.1099997 -5.29 2.3599999
8.1099997 -5.29 2.46
8.1099997 -5.29 2.5599999
8.1099997 -5.29 2.6600001
8.1099997 -5.29 2.76
8.1099997 -5.29 2.8599999
8.1099997 -5.29 2.96
8.1099997 -5.29 3.0599999
8.1099997 -5.29 3.1600001
8.1099997 -5.29 3.26
8.1099997 -5.29 3.3599999
8.1099997 -5.29 3.46
8.1099997 -5.29 3.5599999
8.1099997 -5.29 3.6600001
8.1099997 -5.29 3.76
8.1099997 -5.29 3.8599999
8.1099997 -5.29 3.96
8.1099997 -5.29 4.0599999
8.1099997 -5.29 4.1599998
8.1099997 -5.29 4.2600002
8.1099997 -5.29 4.3600001
8.1099997 -5.29 4.46
8.1099997 -5.29 4.5599999
8.1099997 -5.29 4.6599998
8.1099997 -5.29 4.7600002
8.1099997 -5.29 4.8600001
8.1099997 -5.29 4.96
8.1099997 -5.1900001 0.059999999
8.1099997 -5.1900001 0.16
8.1099997 -5.1900001 0.25999999
8.1099997 -5.1900001 0.36000001
8.1099997 -5.1900001 0.46000001
8.1099997 -5.1900001 0.56
8.1099997 -5.1900001 0.66000003
8.1099997 -5.1900001 0.75999999
8.1099997 -5.1900001 0.86000001
8.1099997 -5.1900001 0.95999998
8.1099997 -5.1900001 1.0599999
8.1099997 -5.1900001 1.16
8.1099997 -5.1900001 1.26
8.1099997 -5.1900001 1.36
8.1099997 -5.1900001 1.46
8.1099997 -5.1900001 1.5599999
8.1099997 -5.1900001 1.66
8.1099997 -5.1900001 1.76
8.1099997 -5.1900001 1.86
8.1099997 -5.1900001 1.96
8.1099997 -5.1900001 2.0599999
8.1099997 -5.1900001 2.1600001
8.1099997 -5.1900001 2.26
8.1099997 -5.1900001 2.3599999
8.1099997 -5.1900001 2.46
8.1099997 -5.1900001 2.5599999
8.1099997 -5.1900001 2.6600001
8.1099997 -5.1900001 2.76
8.1099997 -5.1900001 2.8599999
8.1099997 -5.1900001 2.96
8.1099997 -5.1900001 3.0599999
8.1099997 -5.1900001 3.1600001
8.1099997 -5.1900001 3.26
8.1099997 -5.1900001 3.3599999
8.1099997 -5.1900001 3.46
8.1099997 -5.1900001 3.5599999
8.1099997 -5.1900001 3.6600001
8.1099997 -5.1900001 3.76
8.1099997 -5.1900001 3.8599999
8.1099997 -5.1900001 3.96
8.1099997 -5.1900001 4.0599999
8.1099997 -5.1900001 4.1599998
8.1099997 -5.1900001 4.2600002
8.1099997 -5.1900001 4.3600001
8.1099997 -5.1900001 4.46
8.1099997 -5.1900001 4.5599999
8.1099997 -5.1900001 4.6599998
8.1099997 -5.1900001 4.7600002
8.1099997 -5.1900001 4.8600001
8.1099997 -5.1900001 4.96
8.1099997 -5.0900002 0.059999999
8.1099997 -5.0900002 0.16
8.1099997 -5.0900002 0.25999999
8.1099997 -5.0900002 0.36000001
8.1099997 -5.0900002 0.46000001
8.1099997 -5.0900002 0.56
8.1099997 -5.0900002 0.66000003
8.1099997 -5.0900002 0.75999999
8.1099997 -5.0900002 0.86000001
8.1099997 -5.0900002 0.95999998
8.1099997 -5.0900002 1.0599999
8.1099997 -5.0900002 1.16
8.1099997 -5.0900002 1.26
8.1099997 -5.0900002 1.36
8.1099997 -5.0900002 1.46
8.1099997 -5.0900002 1.5599999
8.1099997 -5.0900002 1.66
8.1099997 -5.0900002 1.76
8.1099997 -5.0900002 1.86
8.1099997 -5.0900002 1.96
8.1099997 -5.0900002 2.0599999
8.1099997 -5.0900002 2.1600001
8.1099997 -5.0900002 2.26
8.1099997 -5.0900002 2.3599999
8.1099997 -5.0900002 2.46
8.1099997 -5.0900002 2.5599999
8.1099997 -5.0900002 2.6600001
8.1099997 -5.0900002 2.76
8.1099997 -5.0900002 2.8599999
8.1099997 -5.0900002 2.96
8.1099997 -5.0900002 3.0599999
8.1099997 -5.0900002 3.1600001
8.1099997 -5.0900002 3.26
8.1099997 -5.0900002 3.3599999
8.1099997 -5.0900002 3.46
8.1099997 -5.0900002 3.5599999
8.1099997 -5.0900002 3.6600001
8.1099997 -5.0900002 3.76
8.1099997 -5.0900002 3.8599999
8.1099997 -5.0900002 3.96
8.1099997 -5.0900002 4.0599999
8.1099997 -5.0900002 4.1599998
8.1099997 -5.0900002 4.2600002
8.1099997 -5.0900002 4.3600001
8.1099997 -5.0900002 4.46
8.1099997 -5.0900002 4.5599999
8.1099997 -5.0900002 4.6599998
8.1099997 -5.0900002 4.7600002
8.1099997 -5.0900002 4.8600001
8.1099997 -5.0900002 4.96
8.21 -5.3899999 0.059999999
8.21 -5.3899999 0.16
8.21 -5.3899999 0.25999999
8.21 -5.3899999 0.36000001
8.21 -5.3899999 0.46000001
8.21 -5.3899999 0.56
8.21 -5.3899999 0.66000003
8.21 -5.3899999 0.75999999
8.21 -5.3899999 0.86000001
8.21 -5.3899999 0.95999998
8.21 -5.3899999 1.0599999
8.21 -5.3899999 1.16
8.21 -5.3899999 1.26
8.21 -5.3899999 1.36
8.21 -5.3899999 1.46
8.21 -5.3899999 1.5599999
8.21 -5.3899999 1.66
8.21 -5.3899999 1.76
8.21 -5.3899999 1.86
8.21 -5.3899999 1.96
8.21 -5.3899999 2.0599999
8.21 -5.3899999 2.1600001
8.21 -5.3899999 2.26
8.21 -5.3899999 2.3599999
8.21 -5.3899999 2.46
8.21 -5.3899999 2.5599999
8.21 -5.3899999 2.6600001
8.21 -5.3899999 2.76
8.21 -5.3899999 2.8599999
8.21 -5.3899999 2.96
8.21 -5.3899999 3.0599999
8.21 -5.3899999 3.1600001
8.21 -5.3899999 3.26
8.21 -5.3899999 3.3599999
8.21 -5.3899999 3.46
8.21 -5.3899999 3.5599999
8.21 -5.3899999 3.6600001
8.21 -5.3899999 3.76
8.21 -5.3899999 3.8599999
8.21 -5.3899999 3.96
8.21 -5.3899999 4.0599999
8.21 -5.3899999 4.1599998
8.21 -5.3899999 4.2600002
8.21 -5.3899999 4.3600001
8.21 -5.3899999 4.46
8.21 -5.3899999 4.5599999
8.21 -5.3899999 4.6599998
8.21 -5.3899999 4.7600002
8.21 -5.3899999 4.8600001
8.21 -5.3899999 4.96
8.21 -5.29 0.059999999
8.21 -5.29 0.16
8.21 -5.29 0.25999999
8.21 -5.29 0.36000001
8.21 -5.29 0.46000001
8.21 -5.29 0.56
8.21 -5.29 0.66000003
8.21 -5.29 0.75999999
8.21 -5.29 0.86000001
8.21 -5.29 0.95999998
8.21 -5.29 1.0599999
8.21 -5.29 1.16
8.21 -5.29 1.26
8.21 -5.29 1.36
8.21 -5.29 1.46
8.21 -5.29 1.5599999
8.21 -5.29 1.66
8.21 -5.29 1.76
8.21 -5.29 1.86
8.21 -5.29 1.96
8.21 -5.29 2.0599999
8.21 -5.29 2.1600001
8.21 -5.29 2.26
8.21 -5.29 2.3599999
8.21 -5.29 2.46
8.21 -5.29 2.5599999
8.21 -5.29 2.6600001
8.21 -5.29 2.76
8.21 -5.29 2.8599999
8.21 -5.29 2.96
8.21 -5.29 3.0599999
8.21 -5.29 3.1600001
8.21 -5.29 3.26
8.21 -5.29 3.3599999
8.21 -5.29 3.46
8.21 -5.29 3.5599999
8.21 -5.29 3.6600001
8.21 -5.29 3.76
8.21 -5.29 3.8599999
8.21 -5.29 3.96
8.21 -5.29 4.0599999
8.21 -5.29 4.1599998
8.21 -5.29 4.2600002
8.21 -5.29 4.3600001
8.21 -5.29 4.46
8.21 -5.29 4.5599999
8.21 -5.29 4.6599998
8.21 -5.29 4.7600002
8.21 -5.29 4.8600001
8.21 -5.29 4.96
8.21 -5.1900001 0.059999999
8.21 -5.1900001 0.16
8.21 -5.1900001 0.25999999
8.21 -5.1900001 0.36000001
8.21 -5.1900001 0.46000001
8.21 -5.1900001 0.56
8.21 -5.1900001 0.66000003
8.21 -5.1900001 0.75999999
8.21 -5.1900001 0.86000001
8.21 -5.1900001 0.95999998
8.21 -5.1900001 1.0599999
8.21 -5.1900001 1.16
8.21 -5.1900001 1.26
8.21 -5.1900001 1.36
8.21 -5.1900001 1.46
8.21 -5.1900001 1.5599999
8.21 -5.1900001 1.66
8.21 -5.1900001 1.76
8.21 -5.1900001 1.86
8.21 -5.1900001 1.96
8.21 -5.1900001 2.0599999
8.21 -5.1900001 2.1600001
8.21 -5.1900001 2.26
8.21 -5.1900001 2.3599999
8.21 -5.1900001 2.46
8.21 -5.1900001 2.5599999
8.21 -5.1900001 2.6600001
8.21 -5.1900001 2.76
8.21 -5.1900001 2.8599999
8.21 -5.1900001 2.96
8.21 -5.1900001 3.0599999
8.21 -5.1900001 3.1600001
8.21 -5.1900001 3.26
8.21 -5.1900001 3.3599999
8.21 -5.1900001 3.46
8.21 -5.1900001 3.5599999
8.21 -5.1900001 3.6600001
8.21 -5.1900001 3.76
8.21 -5.1900001 3.8599999
8.21 -5.1900001 3.96
8.21 -5.1900001 4.0599999
8.21 -5.1900001 4.1599998
8.21 -5.1900001 4.2600002
8.21 -5.1900001 4.3600001
8.21 -5.1900001 4.46
8.21 -5.1900001 4.5599999
8.21 -5.1900001 4.6599998
8.21 -5.1900001 4.7600002
8.21 -5.1900001 4.8600001
8.21 -5.1900001 4.96
8.21 -5.0900002 0.059999999
8.21 -5.0900002 0.16
8.21 -5.0900002 0.25999999
8.21 -5.0900002 0.36000001
8.21 -5.0900002 0.46000001
8.21 -5.0900002 0.56
8.21 -5.0900002 0.66000003
8.21 -5.0900002 0.75999999
8.21 -5.0900002 0.86000001
8.21 -5.0900002 0.95999998
8.21 -5.0900002 1.0599999
8.21 -5.0900002 1.16
8.21 -5.0900002 1.26
8.21 -5.0900002 1.36
8.21 -5.0900002 1.46
8.21 -5.0900002 1.5599999
8.21 -5.0900002 1.66
8.21 -5.0900002 1.76
8.21 -5.0900002 1.86
8.21 -5.0900002 1.96
8.21 -5.0900002 2.0599999
8.21 -5.0900002 2.1600001
8.21 -5.0900002 2.26
8.21 -5.0900002 2.3599999
8.21 -5.0900002 2.46
8.21 -5.0900002 2.5599999
8.21 -5.0900002 2.6600001
8.21 -5.0900002 2.76
8.21 -5.0900002 2.8599999
8.21 -5.0900002 2.96
8.21 -5.0900002 3.0599999
8.21 -5.0900002 3.1600001
8.21 -5.0900002 3.26
8.21 -5.0900002 3.3599999
8.21 -5.0900002 3.46
8.21 -5.0900002 3.5599999
8.21 -5.0900002 3.6600001
8.21 -5.0900002 3.76
8.21 -5.0900002 3.8599999
8.21 -5.0900002 3.96
8.21 -5.0900002 4.0599999
8.21 -5.0900002 4.1599998
8.21 -5.0900002 4.2600002
8.21 -5.0900002 4.3600001
8.21 -5.0900002 4.46
8.21 -5.0900002 4.5599999
8.21 -5.0900002 4.6599998
8.21 -5.0900002 4.7600002
8.21 -5.0900002 4.8600001
8.21 -5.0900002 4.96
-5.4899998 -2.6900001 0.059999999
-5.4899998 -2.6900001 0.16
-5.4899998 -2.6900001 0.25999999
-5.4899998 -2.6900001 0.36000001
-5.4899998 -2.6900001 0.46000001
-5.4899998 -2.6900001 0.56
-5.4899998 -2.6900001 0.66000003
-5.4899998 -2.6900001 0.75999999
-5.4899998 -2.6900001 0.86000001
-5.4899998 -2.6900001 0.95999998
-5.4899998 -2.6900001 1.0599999
-5.4899998 -2.6900001 1.16
-5.4899998 -2.6900001 1.26
-5.4899998 -2.6900001 1.36
-5.4899998 -2.6900001 1.46
-5.4899998 -2.6900001 1.5599999
-5.4899998 -2.6900001 1.66
-5.4899998 -2.6900001 1.76
-5.4899998 -2.6900001 1.86
-5.4899998 -2.6900001 1.96
-5.4899998 -2.6900001 2.0599999
-5.4899998 -2.6900001 2.1600001
-5.4899998 -2.6900001 2.26
-5.4899998 -2.6900001 2.3599999
-5.4899998 -2.6900001 2.46
-5.4899998 -2.6900001 2.5599999
-5.4899998 -2.6900001 2.6600001
-5.4899998 -2.6900001 2.76
-5.4899998 -2.6900001 2.8599999
-5.4899998 -2.6900001 2.96
-5.4899998 -2.6900001 3.0599999
-5.4899998 -2.6900001 3.1600001
-5.4899998 -2.6900001 3.26
-5.4899998 -2.6900001 3.3599999
-5.4899998 -2.6900001 3.46
-5.4899998 -2.6900001 3.5599999
-5.4899998 -2.6900001 3.6600001
-5.4899998 -2.6900001 3.76
-5.4899998 -2.6900001 3.8599999
-5.4899998 -2.6900001 3.96
-5.4899998 -2.6900001 4.0599999
-5.4899998 -2.6900001 4.1599998
-5.4899998 -2.6900001 4.2600002
-5.4899998 -2.6900001 4.3600001
-5.4899998 -2.6900001 4.46
-5.4899998 -2.6900001 4.5599999
-5.4899998 -2.6900001 4.6599998
-5.4899998 -2.6900001 4.7600002
-5.4899998 -2.6900001 4.8600001
-5.4899998 -2.6900001 4.96
-5.4899998 -2.5899999 0.059999999
-5.4899998 -2.5899999 0.16
-5.4899998 -2.5899999 0.25999999
-5.4899998 -2.5899999 0.36000001
-5.4899998 -2.5899999 0.46000001
-5.4899998 -2.5899999 0.56
-5.4899998 -2.5899999 0.66000003
-5.4899998 -2.5899999 0.75999999
-5.4899998 -2.5899999 0.86000001
-5.4899998 -2.5899999 0.95999998
-5.4899998 -2.5899999 1.0599999
-5.4899998 -2.5899999 1.16
-5.4899998 -2.5899999 1.26
-5.4899998 -2.5899999 1.36
-5.4899998 -2.5899999 1.46
-5.4899998 -2.5899999 1.5599999
-5.4899998 -2.5899999 1.66
-5.4899998 -2.5899999 1.76
-5.4899998 -2.5899999 1.86
-5.4899998 -2.5899999 1.96
-5.4899998 -2.5899999 2.0599999
-5.4899998 -2.5899999 2.1600001
-5.4899998 -2.5899999 2.26
-5.4899998 -2.5899999 2.3599999
-5.4899998 -2.5899999 2.46
-5.4899998 -2.5899999 2.5599999
-5.4899998 -2.5899999 2.6600001
-5.4899998 -2.5899999 2.76
-5.4899998 -2.5899999 2.8599999
-5.4899998 -2.5899999 2.96
-5.4899998 -2.5899999 3.0599999
-5.4899998 -2.5899999 3.1600001
-5.4899998 -2.5899999 3.26
-5.4899998 -2.5899999 3.3599999
-5.4899998 -2.5899999 3.46
-5.4899998 -2.5899999 3.5599999
-5.4899998 -2.5899999 3.6600001
