# .PCD v0.7 - Point Cloud Data file format
VERSION 0.7
FIELDS x y z
SIZE 4 4 4
TYPE F F F
COUNT 1 1 1
WIDTH 1901
HEIGHT 1
VIEWPOINT 0 0 0 1 0 0 0
POINTS 1901
DATA ascii
-0.090000004 1.51 0.13500001
-0.090000004 1.51 0.185
-0.090000004 1.51 0.235
-0.090000004 1.51 0.285
-0.090000004 1.51 0.33500001
-0.090000004 1.51 0.38499999
-0.090000004 1.51 0.435
-0.090000004 1.51 0.48500001
-0.090000004 1.51 0.53500003
-0.090000004 1.51 0.58499998
-0.090000004 1.51 0.63499999
-0.090000004 1.51 0.685
-0.090000004 1.51 0.73500001
-0.090000004 1.51 0.78500003
-0.090000004 1.51 0.83499998
-0.090000004 1.51 0.88499999
-0.090000004 1.51 0.935
-0.090000004 1.51 0.98500001
-0.090000004 1.51 1.035
-0.090000004 1.51 1.085
-0.090000004 1.51 1.135
-0.090000004 1.51 1.1849999
-0.090000004 1.51 1.235
-0.090000004 1.51 1.285
-0.090000004 1.51 1.335
-0.090000004 1.51 1.385
-0.090000004 1.51 1.4349999
-0.090000004 1.51 1.485
-0.090000004 1.51 1.535
-0.090000004 1.51 1.585
-0.090000004 1.51 1.635
-0.090000004 1.51 1.6849999
-0.090000004 1.51 1.735
-0.090000004 1.51 1.785
-0.090000004 1.51 1.835
-0.090000004 1.51 1.885
-0.090000004 1.51 1.9349999
-0.090000004 1.51 1.985
-0.090000004 1.51 2.0350001
-0.090000004 1.51 2.085
-0.090000004 1.51 2.135
-0.090000004 1.51 2.1849999
-0.090000004 1.51 2.2349999
-0.090000004 1.51 2.2850001
-0.090000004 1.51 2.335
-0.090000004 1.51 2.385
-0.090000004 1.51 2.4349999
-0.090000004 1.51 2.4849999
-0.090000004 1.5599999 -0.465
-0.090000004 1.5599999 -0.41499999
-0.090000004 1.5599999 -0.36500001
-0.090000004 1.5599999 -0.315
-0.090000004 1.5599999 -0.26499999
-0.090000004 1.5599999 -0.215
-0.090000004 1.5599999 -0.16500001
-0.090000004 1.5599999 -0.115
-0.090000004 1.5599999 -0.064999998
-0.090000004 1.5599999 -0.015
-0.090000004 1.5599999 0.035
-0.090000004 1.5599999 0.085000001
-0.090000004 1.5599999 0.13500001
-0.090000004 1.5599999 0.185
-0.090000004 1.5599999 0.235
-0.090000004 1.5599999 0.285
-0.090000004 1.5599999 0.33500001
-0.090000004 1.5599999 0.38499999
-0.090000004 1.5599999 0.435
-0.090000004 1.5599999 0.48500001
-0.090000004 1.5599999 0.53500003
-0.090000004 1.5599999 0.58499998
-0.090000004 1.5599999 0.63499999
-0.090000004 1.5599999 0.685
-0.090000004 1.5599999 0.73500001
-0.090000004 1.5599999 0.78500003
-0.090000004 1.5599999 0.83499998
-0.090000004 1.5599999 0.88499999
-0.090000004 1.5599999 0.935
-0.090000004 1.5599999 0.98500001
-0.090000004 1.5599999 1.035
-0.090000004 1.5599999 1.085
-0.090000004 1.5599999 1.135
-0.090000004 1.5599999 1.1849999
-0.090000004 1.5599999 1.235
-0.090000004 1.5599999 1.285
-0.090000004 1.5599999 1.335
-0.090000004 1.5599999 1.385
-0.090000004 1.5599999 1.4349999
-0.090000004 1.5599999 1.485
-0.090000004 1.5599999 1.535
-0.090000004 1.5599999 1.585
-0.090000004 1.5599999 1.635
-0.090000004 1.5599999 1.6849999
-0.090000004 1.5599999 1.735
-0.090000004 1.5599999 1.785
-0.090000004 1.5599999 1.835
-0.090000004 1.5599999 1.885
-0.090000004 1.5599999 1.9349999
-0.090000004 1.5599999 1.985
-0.090000004 1.5599999 2.0350001
-0.090000004 1.5599999 2.085
-0.090000004 1.5599999 2.135
-0.090000004 1.5599999 2.1849999
-0.090000004 1.5599999 2.2349999
-0.090000004 1.5599999 2.2850001
-0.090000004 1.5599999 2.335
-0.090000004 1.5599999 2.385
-0.090000004 1.5599999 2.4349999
-0.090000004 1.5599999 2.4849999
-0.090000004 1.61 -0.465
-0.090000004 1.61 -0.41499999
-0.090000004 1.61 -0.36500001
-0.090000004 1.61 -0.315
-0.090000004 1.61 -0.26499999
-0.090000004 1.61 -0.215
-0.090000004 1.61 -0.16500001
-0.090000004 1.61 -0.115
-0.090000004 1.61 -0.064999998
-0.090000004 1.61 -0.015
-0.090000004 1.61 0.035
-0.090000004 1.61 0.085000001
-0.090000004 1.61 0.13500001
-0.090000004 1.61 0.185
-0.090000004 1.61 0.235
-0.090000004 1.61 0.285
-0.090000004 1.61 0.33500001
-0.090000004 1.61 0.38499999
-0.090000004 1.61 0.435
-0.090000004 1.61 0.48500001
-0.090000004 1.61 0.53500003
-0.090000004 1.61 0.58499998
-0.090000004 1.61 0.63499999
-0.090000004 1.61 0.685
-0.090000004 1.61 0.73500001
-0.090000004 1.61 0.78500003
-0.090000004 1.61 0.83499998
-0.090000004 1.61 0.88499999
-0.090000004 1.61 0.935
-0.090000004 1.61 0.98500001
-0.090000004 1.61 1.035
-0.090000004 1.61 1.085
-0.090000004 1.61 1.135
-0.090000004 1.61 1.1849999
-0.090000004 1.61 1.235
-0.090000004 1.61 1.285
-0.090000004 1.61 1.335
-0.090000004 1.61 1.385
-0.090000004 1.61 1.4349999
-0.090000004 1.61 1.485
-0.090000004 1.61 1.535
-0.090000004 1.61 1.585
-0.090000004 1.61 1.635
-0.090000004 1.61 1.6849999
-0.090000004 1.61 1.735
-0.090000004 1.61 1.785
-0.090000004 1.61 1.835
-0.090000004 1.61 1.885
-0.090000004 1.61 1.9349999
-0.090000004 1.61 1.985
-0.090000004 1.61 2.0350001
-0.090000004 1.61 2.085
-0.090000004 1.61 2.135
-0.090000004 1.61 2.1849999
-0.090000004 1.61 2.2349999
-0.090000004 1.61 2.2850001
-0.090000004 1.61 2.335
-0.090000004 1.61 2.385
-0.090000004 1.61 2.4349999
-0.090000004 1.61 2.4849999
-0.090000004 1.66 -0.465
-0.090000004 1.66 -0.41499999
-0.090000004 1.66 -0.36500001
-0.090000004 1.66 -0.315
-0.090000004 1.66 -0.26499999
-0.090000004 1.66 -0.215
-0.090000004 1.66 -0.16500001
-0.090000004 1.66 -0.115
-0.090000004 1.66 -0.064999998
-0.090000004 1.66 -0.015
-0.090000004 1.66 0.035
-0.090000004 1.66 0.085000001
-0.090000004 1.66 0.13500001
-0.090000004 1.66 0.185
-0.090000004 1.66 0.235
-0.090000004 1.66 0.285
-0.090000004 1.66 0.33500001
-0.090000004 1.66 0.38499999
-0.090000004 1.66 0.435
-0.090000004 1.66 0.48500001
-0.090000004 1.66 0.53500003
-0.090000004 1.66 0.58499998
-0.090000004 1.66 0.63499999
-0.090000004 1.66 0.685
-0.090000004 1.66 0.73500001
-0.090000004 1.66 0.78500003
-0.090000004 1.66 0.83499998
-0.090000004 1.66 0.88499999
-0.090000004 1.66 0.935
-0.090000004 1.66 0.98500001
-0.090000004 1.66 1.035
-0.090000004 1.66 1.085
-0.090000004 1.66 1.135
-0.090000004 1.66 1.1849999
-0.090000004 1.66 1.235
-0.090000004 1.66 1.285
-0.090000004 1.66 1.335
-0.090000004 1.66 1.385
-0.090000004 1.66 1.4349999
-0.090000004 1.66 1.485
-0.090000004 1.66 1.535
-0.090000004 1.66 1.585
-0.090000004 1.66 1.635
-0.090000004 1.66 1.6849999
-0.090000004 1.66 1.735
-0.090000004 1.66 1.785
-0.090000004 1.66 1.835
-0.090000004 1.66 1.885
-0.090000004 1.66 1.9349999
-0.090000004 1.66 1.985
-0.090000004 1.66 2.0350001
-0.090000004 1.66 2.085
-0.090000004 1.66 2.135
-0.090000004 1.66 2.1849999
-0.090000004 1.66 2.2349999
-0.090000004 1.66 2.2850001
-0.090000004 1.66 2.335
-0.090000004 1.66 2.385
-0.090000004 1.66 2.4349999
-0.090000004 1.66 2.4849999
-0.039999999 1.46 -0.465
-0.039999999 1.46 -0.41499999
-0.039999999 1.46 -0.36500001
-0.039999999 1.46 -0.315
-0.039999999 1.46 -0.26499999
-0.039999999 1.46 -0.215
-0.039999999 1.46 -0.16500001
-0.039999999 1.46 -0.115
-0.039999999 1.46 -0.064999998
-0.039999999 1.46 -0.015
-0.039999999 1.46 0.035
-0.039999999 1.46 0.085000001
-0.039999999 1.46 0.13500001
-0.039999999 1.46 0.185
-0.039999999 1.46 0.235
-0.039999999 1.46 0.285
-0.039999999 1.46 0.33500001
-0.039999999 1.46 0.38499999
-0.039999999 1.46 0.435
-0.039999999 1.46 0.48500001
-0.039999999 1.46 0.53500003
-0.039999999 1.46 0.58499998
-0.039999999 1.46 0.63499999
-0.039999999 1.46 0.685
-0.039999999 1.46 0.73500001
-0.039999999 1.46 0.78500003
-0.039999999 1.46 0.83499998
-0.039999999 1.46 0.88499999
-0.039999999 1.46 0.935
-0.039999999 1.46 0.98500001
-0.039999999 1.46 1.035
-0.039999999 1.46 1.085
-0.039999999 1.46 1.135
-0.039999999 1.46 1.1849999
-0.039999999 1.46 1.235
-0.039999999 1.46 1.285
-0.039999999 1.46 1.335
-0.039999999 1.46 1.385
-0.039999999 1.46 1.4349999
-0.039999999 1.46 1.485
-0.039999999 1.46 1.535
-0.039999999 1.46 1.585
-0.039999999 1.46 1.635
-0.039999999 1.46 1.6849999
-0.039999999 1.46 1.735
-0.039999999 1.46 1.785
-0.039999999 1.46 1.835
-0.039999999 1.46 1.885
-0.039999999 1.46 1.9349999
-0.039999999 1.46 1.985
-0.039999999 1.46 2.0350001
-0.039999999 1.46 2.085
-0.039999999 1.46 2.135
-0.039999999 1.46 2.1849999
-0.039999999 1.46 2.2349999
-0.039999999 1.46 2.2850001
-0.039999999 1.46 2.335
-0.039999999 1.46 2.385
-0.039999999 1.46 2.4349999
-0.039999999 1.46 2.4849999
-0.039999999 1.51 -0.465
-0.039999999 1.51 -0.41499999
-0.039999999 1.51 -0.36500001
-0.039999999 1.51 -0.315
-0.039999999 1.51 -0.26499999
-0.039999999 1.51 -0.215
-0.039999999 1.51 -0.16500001
-0.039999999 1.51 -0.115
-0.039999999 1.51 -0.064999998
-0.039999999 1.51 -0.015
-0.039999999 1.51 0.035
-0.039999999 1.51 0.085000001
-0.039999999 1.51 0.13500001
-0.039999999 1.51 0.185
-0.039999999 1.51 0.235
-0.039999999 1.51 0.285
-0.039999999 1.51 0.33500001
-0.039999999 1.51 0.38499999
-0.039999999 1.51 0.435
-0.039999999 1.51 0.48500001
-0.039999999 1.51 0.53500003
-0.039999999 1.51 0.58499998
-0.039999999 1.51 0.63499999
-0.039999999 1.51 0.685
-0.039999999 1.51 0.73500001
-0.039999999 1.51 0.78500003
-0.039999999 1.51 0.83499998
-0.039999999 1.51 0.88499999
-0.039999999 1.51 0.935
-0.039999999 1.51 0.98500001
-0.039999999 1.51 1.035
-0.039999999 1.51 1.085
-0.039999999 1.51 1.135
-0.039999999 1.51 1.1849999
-0.039999999 1.51 1.235
-0.039999999 1.51 1.285
-0.039999999 1.51 1.335
-0.039999999 1.51 1.385
-0.039999999 1.51 1.4349999
-0.039999999 1.51 1.485
-0.039999999 1.51 1.535
-0.039999999 1.51 1.585
-0.039999999 1.51 1.635
-0.039999999 1.51 1.6849999
-0.039999999 1.51 1.735
-0.039999999 1.51 1.785
-0.039999999 1.51 1.835
-0.039999999 1.51 1.885
-0.039999999 1.51 1.9349999
-0.039999999 1.51 1.985
-0.039999999 1.51 2.0350001
-0.039999999 1.51 2.085
-0.039999999 1.51 2.135
-0.039999999 1.51 2.1849999
-0.039999999 1.51 2.2349999
-0.039999999 1.51 2.2850001
-0.039999999 1.51 2.335
-0.039999999 1.51 2.385
-0.039999999 1.51 2.4349999
-0.039999999 1.51 2.4849999
-0.039999999 1.5599999 -0.465
-0.039999999 1.5599999 -0.41499999
-0.039999999 1.5599999 -0.36500001
-0.039999999 1.5599999 -0.315
-0.039999999 1.5599999 -0.26499999
-0.039999999 1.5599999 -0.215
-0.039999999 1.5599999 -0.16500001
-0.039999999 1.5599999 -0.115
-0.039999999 1.5599999 -0.064999998
-0.039999999 1.5599999 -0.015
-0.039999999 1.5599999 0.035
-0.039999999 1.5599999 0.085000001
-0.039999999 1.5599999 0.13500001
-0.039999999 1.5599999 0.185
-0.039999999 1.5599999 0.235
-0.039999999 1.5599999 0.285
-0.039999999 1.5599999 0.33500001
-0.039999999 1.5599999 0.38499999
-0.039999999 1.5599999 0.435
-0.039999999 1.5599999 0.48500001
-0.039999999 1.5599999 0.53500003
-0.039999999 1.5599999 0.58499998
-0.039999999 1.5599999 0.63499999
-0.039999999 1.5599999 0.685
-0.039999999 1.5599999 0.73500001
-0.039999999 1.5599999 0.78500003
-0.039999999 1.5599999 0.83499998
-0.039999999 1.5599999 0.88499999
-0.039999999 1.5599999 0.935
-0.039999999 1.5599999 0.98500001
-0.039999999 1.5599999 1.035
-0.039999999 1.5599999 1.085
-0.039999999 1.5599999 1.135
-0.039999999 1.5599999 1.1849999
-0.039999999 1.5599999 1.235
-0.039999999 1.5599999 1.285
-0.039999999 1.5599999 1.335
-0.039999999 1.5599999 1.385
-0.039999999 1.5599999 1.4349999
-0.039999999 1.5599999 1.485
-0.039999999 1.5599999 1.535
-0.039999999 1.5599999 1.585
-0.039999999 1.5599999 1.635
-0.039999999 1.5599999 1.6849999
-0.039999999 1.5599999 1.735
-0.039999999 1.5599999 1.785
-0.039999999 1.5599999 1.835
-0.039999999 1.5599999 1.885
-0.039999999 1.5599999 1.9349999
-0.039999999 1.5599999 1.985
-0.039999999 1.5599999 2.0350001
-0.039999999 1.5599999 2.085
-0.039999999 1.5599999 2.135
-0.039999999 1.5599999 2.1849999
-0.039999999 1.5599999 2.2349999
-0.039999999 1.5599999 2.2850001
-0.039999999 1.5599999 2.335
-0.039999999 1.5599999 2.385
-0.039999999 1.5599999 2.4349999
-0.039999999 1.5599999 2.4849999
-0.039999999 1.61 -0.465
-0.039999999 1.61 -0.41499999
-0.039999999 1.61 -0.36500001
-0.039999999 1.61 -0.315
-0.039999999 1.61 -0.26499999
-0.039999999 1.61 -0.215
-0.039999999 1.61 -0.16500001
-0.039999999 1.61 -0.115
-0.039999999 1.61 -0.064999998
-0.039999999 1.61 -0.015
-0.039999999 1.61 0.035
-0.039999999 1.61 0.085000001
-0.039999999 1.61 0.13500001
-0.039999999 1.61 0.185
-0.039999999 1.61 0.235
-0.039999999 1.61 0.285
-0.039999999 1.61 0.33500001
-0.039999999 1.61 0.38499999
-0.039999999 1.61 0.435
-0.039999999 1.61 0.48500001
-0.039999999 1.61 0.53500003
-0.039999999 1.61 0.58499998
-0.039999999 1.61 0.63499999
-0.039999999 1.61 0.685
-0.039999999 1.61 0.73500001
-0.039999999 1.61 0.78500003
-0.039999999 1.61 0.83499998
-0.039999999 1.61 0.88499999
-0.039999999 1.61 0.935
-0.039999999 1.61 0.98500001
-0.039999999 1.61 1.035
-0.039999999 1.61 1.085
-0.039999999 1.61 1.135
-0.039999999 1.61 1.1849999
-0.039999999 1.61 1.235
-0.039999999 1.61 1.285
-0.039999999 1.61 1.335
-0.039999999 1.61 1.385
-0.039999999 1.61 1.4349999
-0.039999999 1.61 1.485
-0.039999999 1.61 1.535
-0.039999999 1.61 1.585
-0.039999999 1.61 1.635
-0.039999999 1.61 1.6849999
-0.039999999 1.61 1.735
-0.039999999 1.61 1.785
-0.039999999 1.61 1.835
-0.039999999 1.61 1.885
-0.039999999 1.61 1.9349999
-0.039999999 1.61 1.985
-0.039999999 1.61 2.0350001
-0.039999999 1.61 2.085
-0.039999999 1.61 2.135
-0.039999999 1.61 2.1849999
-0.039999999 1.61 2.2349999
-0.039999999 1.61 2.2850001
-0.039999999 1.61 2.335
-0.039999999 1.61 2.385
-0.039999999 1.61 2.4349999
-0.039999999 1.61 2.4849999
-0.039999999 1.66 -0.465
-0.039999999 1.66 -0.41499999
-0.039999999 1.66 -0.36500001
-0.039999999 1.66 -0.315
-0.039999999 1.66 -0.26499999
-0.039999999 1.66 -0.215
-0.039999999 1.66 -0.16500001
-0.039999999 1.66 -0.115
-0.039999999 1.66 -0.064999998
-0.039999999 1.66 -0.015
-0.039999999 1.66 0.035
-0.039999999 1.66 0.085000001
-0.039999999 1.66 0.13500001
-0.039999999 1.66 0.185
-0.039999999 1.66 0.235
-0.039999999 1.66 0.285
-0.039999999 1.66 0.33500001
-0.039999999 1.66 0.38499999
-0.039999999 1.66 0.435
-0.039999999 1.66 0.48500001
-0.039999999 1.66 0.53500003
-0.039999999 1.66 0.58499998
-0.039999999 1.66 0.63499999
-0.039999999 1.66 0.685
-0.039999999 1.66 0.73500001
-0.039999999 1.66 0.78500003
-0.039999999 1.66 0.83499998
-0.039999999 1.66 0.88499999
-0.039999999 1.66 0.935
-0.039999999 1.66 0.98500001
-0.039999999 1.66 1.035
-0.039999999 1.66 1.085
-0.039999999 1.66 1.135
-0.039999999 1.66 1.1849999
-0.039999999 1.66 1.235
-0.039999999 1.66 1.285
-0.039999999 1.66 1.335
-0.039999999 1.66 1.385
-0.039999999 1.66 1.4349999
-0.039999999 1.66 1.485
-0.039999999 1.66 1.535
-0.039999999 1.66 1.585
-0.039999999 1.66 1.635
-0.039999999 1.66 1.6849999
-0.039999999 1.66 1.735
-0.039999999 1.66 1.785
-0.039999999 1.66 1.835
-0.039999999 1.66 1.885
-0.039999999 1.66 1.9349999
-0.039999999 1.66 1.985
-0.039999999 1.66 2.0350001
-0.039999999 1.66 2.085
-0.039999999 1.66 2.135
-0.039999999 1.66 2.1849999
-0.039999999 1.66 2.2349999
-0.039999999 1.66 2.2850001
-0.039999999 1.66 2.335
-0.039999999 1.66 2.385
-0.039999999 1.66 2.4349999
-0.039999999 1.66 2.4849999
-0.039999999 1.71 -0.465
-0.039999999 1.71 -0.41499999
-0.039999999 1.71 -0.36500001
-0.039999999 1.71 -0.315
-0.039999999 1.71 -0.26499999
-0.039999999 1.71 -0.215
-0.039999999 1.71 -0.16500001
-0.039999999 1.71 -0.115
-0.039999999 1.71 -0.064999998
-0.039999999 1.71 -0.015
-0.039999999 1.71 0.035
-0.039999999 1.71 0.085000001
-0.039999999 1.71 0.13500001
-0.039999999 1.71 0.185
-0.039999999 1.71 0.235
-0.039999999 1.71 0.285
-0.039999999 1.71 0.33500001
-0.039999999 1.71 0.38499999
-0.039999999 1.71 0.435
-0.039999999 1.71 0.48500001
-0.039999999 1.71 0.53500003
-0.039999999 1.71 0.58499998
-0.039999999 1.71 0.63499999
-0.039999999 1.71 0.685
-0.039999999 1.71 0.73500001
-0.039999999 1.71 0.78500003
-0.039999999 1.71 0.83499998
-0.039999999 1.71 0.88499999
-0.039999999 1.71 0.935
-0.039999999 1.71 0.98500001
-0.039999999 1.71 1.035
-0.039999999 1.71 1.085
-0.039999999 1.71 1.135
-0.039999999 1.71 1.1849999
-0.039999999 1.71 1.235
-0.039999999 1.71 1.285
-0.039999999 1.71 1.335
-0.039999999 1.71 1.385
-0.039999999 1.71 1.4349999
-0.039999999 1.71 1.485
-0.039999999 1.71 1.535
-0.039999999 1.71 1.585
-0.039999999 1.71 1.635
-0.039999999 1.71 1.6849999
-0.039999999 1.71 1.735
-0.039999999 1.71 1.785
-0.039999999 1.71 1.835
-0.039999999 1.71 1.885
-0.039999999 1.71 1.9349999
-0.039999999 1.71 1.985
-0.039999999 1.71 2.0350001
-0.039999999 1.71 2.085
-0.039999999 1.71 2.135
-0.039999999 1.71 2.1849999
-0.039999999 1.71 2.2349999
-0.039999999 1.71 2.2850001
-0.039999999 1.71 2.335
-0.039999999 1.71 2.385
-0.039999999 1.71 2.4349999
-0.039999999 1.71 2.4849999
0.0099999998 1.46 -0.465
0.0099999998 1.46 -0.41499999
0.0099999998 1.46 -0.36500001
0.0099999998 1.46 -0.315
0.0099999998 1.46 -0.26499999
0.0099999998 1.46 -0.215
0.0099999998 1.46 -0.16500001
0.0099999998 1.46 -0.115
0.0099999998 1.46 -0.064999998
0.0099999998 1.46 -0.015
0.0099999998 1.46 0.035
0.0099999998 1.46 0.085000001
0.0099999998 1.46 0.13500001
0.0099999998 1.46 0.185
0.0099999998 1.46 0.235
0.0099999998 1.46 0.285
0.0099999998 1.46 0.33500001
0.0099999998 1.46 0.38499999
0.0099999998 1.46 0.435
0.0099999998 1.46 0.48500001
0.0099999998 1.46 0.53500003
0.0099999998 1.46 0.58499998
0.0099999998 1.46 0.63499999
0.0099999998 1.46 0.685
0.0099999998 1.46 0.73500001
0.0099999998 1.46 0.78500003
0.0099999998 1.46 0.83499998
0.0099999998 1.46 0.88499999
0.0099999998 1.46 0.935
0.0099999998 1.46 0.98500001
0.0099999998 1.46 1.035
0.0099999998 1.46 1.085
0.0099999998 1.46 1.135
0.0099999998 1.46 1.1849999
0.0099999998 1.46 1.235
0.0099999998 1.46 1.285
0.0099999998 1.46 1.335
0.0099999998 1.46 1.385
0.0099999998 1.46 1.4349999
0.0099999998 1.46 1.485
0.0099999998 1.46 1.535
0.0099999998 1.46 1.585
0.0099999998 1.46 1.635
0.0099999998 1.46 1.6849999
0.0099999998 1.46 1.735
0.0099999998 1.46 1.785
0.0099999998 1.46 1.835
0.0099999998 1.46 1.885
0.0099999998 1.46 1.9349999
0.0099999998 1.46 1.985
0.0099999998 1.46 2.0350001
0.0099999998 1.46 2.085
0.0099999998 1.46 2.135
0.0099999998 1.46 2.1849999
0.0099999998 1.46 2.2349999
0.0099999998 1.46 2.2850001
0.0099999998 1.46 2.335
0.0099999998 1.46 2.385
0.0099999998 1.46 2.4349999
0.0099999998 1.46 2.4849999
0.0099999998 1.51 -0.465
0.0099999998 1.51 -0.41499999
0.0099999998 1.51 -0.36500001
0.0099999998 1.51 -0.315
0.0099999998 1.51 -0.26499999
0.0099999998 1.51 -0.215
0.0099999998 1.51 -0.16500001
0.0099999998 1.51 -0.115
0.0099999998 1.51 -0.064999998
0.0099999998 1.51 -0.015
0.0099999998 1.51 0.035
0.0099999998 1.51 0.085000001
0.0099999998 1.51 0.13500001
0.0099999998 1.51 0.185
0.0099999998 1.51 0.235
0.0099999998 1.51 0.285
0.0099999998 1.51 0.33500001
0.0099999998 1.51 0.38499999
0.0099999998 1.51 0.435
0.0099999998 1.51 0.48500001
0.0099999998 1.51 0.53500003
0.0099999998 1.51 0.58499998
0.0099999998 1.51 0.63499999
0.0099999998 1.51 0.685
0.0099999998 1.51 0.73500001
0.0099999998 1.51 0.78500003
0.0099999998 1.51 0.83499998
0.0099999998 1.51 0.88499999
0.0099999998 1.51 0.935
0.0099999998 1.51 0.98500001
0.0099999998 1.51 1.035
0.0099999998 1.51 1.085
0.0099999998 1.51 1.135
0.0099999998 1.51 1.1849999
0.0099999998 1.51 1.235
0.0099999998 1.51 1.285
0.0099999998 1.51 1.335
0.0099999998 1.51 1.385
0.0099999998 1.51 1.4349999
0.0099999998 1.51 1.485
0.0099999998 1.51 1.535
0.0099999998 1.51 1.585
0.0099999998 1.51 1.635
0.0099999998 1.51 1.6849999
0.0099999998 1.51 1.735
0.0099999998 1.51 1.785
0.0099999998 1.51 1.835
0.0099999998 1.51 1.885
0.0099999998 1.51 1.9349999
0.0099999998 1.51 1.985
0.0099999998 1.51 2.0350001
0.0099999998 1.51 2.085
0.0099999998 1.51 2.135
0.0099999998 1.51 2.1849999
0.0099999998 1.51 2.2349999
0.0099999998 1.51 2.2850001
0.0099999998 1.51 2.335
0.0099999998 1.51 2.385
0.0099999998 1.51 2.4349999
0.0099999998 1.51 2.4849999
0.0099999998 1.5599999 -0.465
0.0099999998 1.5599999 -0.41499999
0.0099999998 1.5599999 -0.36500001
0.0099999998 1.5599999 -0.315
0.0099999998 1.5599999 -0.26499999
0.0099999998 1.5599999 -0.215
0.0099999998 1.5599999 -0.16500001
0.0099999998 1.5599999 -0.115
0.0099999998 1.5599999 -0.064999998
0.0099999998 1.5599999 -0.015
0.0099999998 1.5599999 0.035
0.0099999998 1.5599999 0.085000001
0.0099999998 1.5599999 0.13500001
0.0099999998 1.5599999 0.185
0.0099999998 1.5599999 0.235
0.0099999998 1.5599999 0.285
0.0099999998 1.5599999 0.33500001
0.0099999998 1.5599999 0.38499999
0.0099999998 1.5599999 0.435
0.0099999998 1.5599999 0.48500001
0.0099999998 1.5599999 0.53500003
0.0099999998 1.5599999 0.58499998
0.0099999998 1.5599999 0.63499999
0.0099999998 1.5599999 0.685
0.0099999998 1.5599999 0.73500001
0.0099999998 1.5599999 0.78500003
0.0099999998 1.5599999 0.83499998
0.0099999998 1.5599999 0.88499999
0.0099999998 1.5599999 0.935
0.0099999998 1.5599999 0.98500001
0.0099999998 1.5599999 1.035
0.0099999998 1.5599999 1.085
0.0099999998 1.5599999 1.135
0.0099999998 1.5599999 1.1849999
0.0099999998 1.5599999 1.235
0.0099999998 1.5599999 1.285
0.0099999998 1.5599999 1.335
0.0099999998 1.5599999 1.385
0.0099999998 1.5599999 1.4349999
0.0099999998 1.5599999 1.485
0.0099999998 1.5599999 1.535
0.0099999998 1.5599999 1.585
0.0099999998 1.5599999 1.635
0.0099999998 1.5599999 1.6849999
0.0099999998 1.5599999 1.735
0.0099999998 1.5599999 1.785
0.0099999998 1.5599999 1.835
0.0099999998 1.5599999 1.885
0.0099999998 1.5599999 1.9349999
0.0099999998 1.5599999 1.985
0.0099999998 1.5599999 2.0350001
0.0099999998 1.5599999 2.085
0.0099999998 1.5599999 2.135
0.0099999998 1.5599999 2.1849999
0.0099999998 1.5599999 2.2349999
0.0099999998 1.5599999 2.2850001
0.0099999998 1.5599999 2.335
0.0099999998 1.5599999 2.385
0.0099999998 1.5599999 2.4349999
0.0099999998 1.5599999 2.4849999
0.0099999998 1.61 -0.465
0.0099999998 1.61 -0.41499999
0.0099999998 1.61 -0.36500001
0.0099999998 1.61 -0.315
0.0099999998 1.61 -0.26499999
0.0099999998 1.61 -0.215
0.0099999998 1.61 -0.16500001
0.0099999998 1.61 -0.115
0.0099999998 1.61 -0.064999998
0.0099999998 1.61 -0.015
0.0099999998 1.61 0.035
0.0099999998 1.61 0.085000001
0.0099999998 1.61 0.13500001
0.0099999998 1.61 0.185
0.0099999998 1.61 0.235
0.0099999998 1.61 0.285
0.0099999998 1.61 0.33500001
0.0099999998 1.61 0.38499999
0.0099999998 1.61 0.435
0.0099999998 1.61 0.48500001
0.0099999998 1.61 0.53500003
0.0099999998 1.61 0.58499998
0.0099999998 1.61 0.63499999
0.0099999998 1.61 0.685
0.0099999998 1.61 0.73500001
0.0099999998 1.61 0.78500003
0.0099999998 1.61 0.83499998
0.0099999998 1.61 0.88499999
0.0099999998 1.61 0.935
0.0099999998 1.61 0.98500001
0.0099999998 1.61 1.035
0.0099999998 1.61 1.085
0.0099999998 1.61 1.135
0.0099999998 1.61 1.1849999
0.0099999998 1.61 1.235
0.0099999998 1.61 1.285
0.0099999998 1.61 1.335
0.0099999998 1.61 1.385
0.0099999998 1.61 1.4349999
0.0099999998 1.61 1.485
0.0099999998 1.61 1.535
0.0099999998 1.61 1.585
0.0099999998 1.61 1.635
0.0099999998 1.61 1.6849999
0.0099999998 1.61 1.735
0.0099999998 1.61 1.785
0.0099999998 1.61 1.835
0.0099999998 1.61 1.885
0.0099999998 1.61 1.9349999
0.0099999998 1.61 1.985
0.0099999998 1.61 2.0350001
0.0099999998 1.61 2.085
0.0099999998 1.61 2.135
0.0099999998 1.61 2.1849999
0.0099999998 1.61 2.2349999
0.0099999998 1.61 2.2850001
0.0099999998 1.61 2.335
0.0099999998 1.61 2.385
0.0099999998 1.61 2.4349999
0.0099999998 1.61 2.4849999
0.0099999998 1.66 -0.465
0.0099999998 1.66 -0.41499999
0.0099999998 1.66 -0.36500001
0.0099999998 1.66 -0.315
0.0099999998 1.66 -0.26499999
0.0099999998 1.66 -0.215
0.0099999998 1.66 -0.16500001
0.0099999998 1.66 -0.115
0.0099999998 1.66 -0.064999998
0.0099999998 1.66 -0.015
0.0099999998 1.66 0.035
0.0099999998 1.66 0.085000001
0.0099999998 1.66 0.13500001
0.0099999998 1.66 0.185
0.0099999998 1.66 0.235
0.0099999998 1.66 0.285
0.0099999998 1.66 0.33500001
0.0099999998 1.66 0.38499999
0.0099999998 1.66 0.435
0.0099999998 1.66 0.48500001
0.0099999998 1.66 0.53500003
0.0099999998 1.66 0.58499998
0.0099999998 1.66 0.63499999
0.0099999998 1.66 0.685
0.0099999998 1.66 0.73500001
0.0099999998 1.66 0.78500003
0.0099999998 1.66 0.83499998
0.0099999998 1.66 0.88499999
0.0099999998 1.66 0.935
0.0099999998 1.66 0.98500001
0.0099999998 1.66 1.035
0.0099999998 1.66 1.085
0.0099999998 1.66 1.135
0.0099999998 1.66 1.1849999
0.0099999998 1.66 1.235
0.0099999998 1.66 1.285
0.0099999998 1.66 1.335
0.0099999998 1.66 1.385
0.0099999998 1.66 1.4349999
0.0099999998 1.66 1.485
0.0099999998 1.66 1.535
0.0099999998 1.66 1.585
0.0099999998 1.66 1.635
0.0099999998 1.66 1.6849999
0.0099999998 1.66 1.735
0.0099999998 1.66 1.785
0.0099999998 1.66 1.835
0.0099999998 1.66 1.885
0.0099999998 1.66 1.9349999
0.0099999998 1.66 1.985
0.0099999998 1.66 2.0350001
0.0099999998 1.66 2.085
0.0099999998 1.66 2.135
0.0099999998 1.66 2.1849999
0.0099999998 1.66 2.2349999
0.0099999998 1.66 2.2850001
0.0099999998 1.66 2.335
0.0099999998 1.66 2.385
0.0099999998 1.66 2.4349999
0.0099999998 1.66 2.4849999
0.0099999998 1.71 -0.465
0.0099999998 1.71 -0.41499999
0.0099999998 1.71 -0.36500001
0.0099999998 1.71 -0.315
0.0099999998 1.71 -0.26499999
0.0099999998 1.71 -0.215
0.0099999998 1.71 -0.16500001
0.0099999998 1.71 -0.115
0.0099999998 1.71 -0.064999998
0.0099999998 1.71 -0.015
0.0099999998 1.71 0.035
0.0099999998 1.71 0.085000001
0.0099999998 1.71 0.13500001
0.0099999998 1.71 0.185
0.0099999998 1.71 0.235
0.0099999998 1.71 0.285
0.0099999998 1.71 0.33500001
0.0099999998 1.71 0.38499999
0.0099999998 1.71 0.435
0.0099999998 1.71 0.48500001
0.0099999998 1.71 0.53500003
0.0099999998 1.71 0.58499998
0.0099999998 1.71 0.63499999
0.0099999998 1.71 0.685
0.0099999998 1.71 0.73500001
0.0099999998 1.71 0.78500003
0.0099999998 1.71 0.83499998
0.0099999998 1.71 0.88499999
0.0099999998 1.71 0.935
0.0099999998 1.71 0.98500001
0.0099999998 1.71 1.035
0.0099999998 1.71 1.085
0.0099999998 1.71 1.135
0.0099999998 1.71 1.1849999
0.0099999998 1.71 1.235
0.0099999998 1.71 1.285
0.0099999998 1.71 1.335
0.0099999998 1.71 1.385
0.0099999998 1.71 1.4349999
0.0099999998 1.71 1.485
0.0099999998 1.71 1.535
0.0099999998 1.71 1.585
0.0099999998 1.71 1.635
0.0099999998 1.71 1.6849999
0.0099999998 1.71 1.735
0.0099999998 1.71 1.785
0.0099999998 1.71 1.835
0.0099999998 1.71 1.885
0.0099999998 1.71 1.9349999
0.0099999998 1.71 1.985
0.0099999998 1.71 2.0350001
0.0099999998 1.71 2.085
0.0099999998 1.71 2.135
0.0099999998 1.71 2.1849999
0.0099999998 1.71 2.2349999
0.0099999998 1.71 2.2850001
0.0099999998 1.71 2.335
0.0099999998 1.71 2.385
0.0099999998 1.71 2.4349999
0.0099999998 1.71 2.4849999
0.059999999 1.46 -0.465
0.059999999 1.46 -0.41499999
0.059999999 1.46 -0.36500001
0.059999999 1.46 -0.315
0.059999999 1.46 -0.26499999
0.059999999 1.46 -0.215
0.059999999 1.46 -0.16500001
0.059999999 1.46 -0.115
0.059999999 1.46 -0.064999998
0.059999999 1.46 -0.015
0.059999999 1.46 0.035
0.059999999 1.46 0.085000001
0.059999999 1.46 0.13500001
0.059999999 1.46 0.185
0.059999999 1.46 0.235
0.059999999 1.46 0.285
0.059999999 1.46 0.33500001
0.059999999 1.46 0.38499999
0.059999999 1.46 0.435
0.059999999 1.46 0.48500001
0.059999999 1.46 0.53500003
0.059999999 1.46 0.58499998
0.059999999 1.46 0.63499999
0.059999999 1.46 0.685
0.059999999 1.46 0.73500001
0.059999999 1.46 0.78500003
0.059999999 1.46 0.83499998
0.059999999 1.46 0.88499999
0.059999999 1.46 0.935
0.059999999 1.46 0.98500001
0.059999999 1.46 1.035
0.059999999 1.46 1.085
0.059999999 1.46 1.135
0.059999999 1.46 1.1849999
0.059999999 1.46 1.235
0.059999999 1.46 1.285
0.059999999 1.46 1.335
0.059999999 1.46 1.385
0.059999999 1.46 1.4349999
0.059999999 1.46 1.485
0.059999999 1.46 1.535
0.059999999 1.46 1.585
0.059999999 1.46 1.635
0.059999999 1.46 1.6849999
0.059999999 1.46 1.735
0.059999999 1.46 1.785
0.059999999 1.46 1.835
0.059999999 1.46 1.885
0.059999999 1.46 1.9349999
0.059999999 1.46 1.985
0.059999999 1.46 2.0350001
0.059999999 1.46 2.085
0.059999999 1.46 2.135
0.059999999 1.46 2.1849999
0.059999999 1.46 2.2349999
0.059999999 1.46 2.2850001
0.059999999 1.46 2.335
0.059999999 1.46 2.385
0.059999999 1.46 2.4349999
0.059999999 1.46 2.4849999
0.059999999 1.51 -0.465
0.059999999 1.51 -0.41499999
0.059999999 1.51 -0.36500001
0.059999999 1.51 -0.315
0.059999999 1.51 -0.26499999
0.059999999 1.51 -0.215
0.059999999 1.51 -0.16500001
0.059999999 1.51 -0.115
0.059999999 1.51 -0.064999998
0.059999999 1.51 -0.015
0.059999999 1.51 0.035
0.059999999 1.51 0.085000001
0.059999999 1.51 0.13500001
0.059999999 1.51 0.185
0.059999999 1.51 0.235
0.059999999 1.51 0.285
0.059999999 1.51 0.33500001
0.059999999 1.51 0.38499999
0.059999999 1.51 0.435
0.059999999 1.51 0.48500001
0.059999999 1.51 0.53500003
0.059999999 1.51 0.58499998
0.059999999 1.51 0.63499999
0.059999999 1.51 0.685
0.059999999 1.51 0.73500001
0.059999999 1.51 0.78500003
0.059999999 1.51 0.83499998
0.059999999 1.51 0.88499999
0.059999999 1.51 0.935
0.059999999 1.51 0.98500001
0.059999999 1.51 1.035
0.059999999 1.51 1.085
0.059999999 1.51 1.135
0.059999999 1.51 1.1849999
0.059999999 1.51 1.235
0.059999999 1.51 1.285
0.059999999 1.51 1.335
0.059999999 1.51 1.385
0.059999999 1.51 1.4349999
0.059999999 1.51 1.485
0.059999999 1.51 1.535
0.059999999 1.51 1.585
0.059999999 1.51 1.635
0.059999999 1.51 1.6849999
0.059999999 1.51 1.735
0.059999999 1.51 1.785
0.059999999 1.51 1.835
0.059999999 1.51 1.885
0.059999999 1.51 1.9349999
0.059999999 1.51 1.985
0.059999999 1.51 2.0350001
0.059999999 1.51 2.085
0.059999999 1.51 2.135
0.059999999 1.51 2.1849999
0.059999999 1.51 2.2349999
0.059999999 1.51 2.2850001
0.059999999 1.51 2.335
0.059999999 1.51 2.385
0.059999999 1.51 2.4349999
0.059999999 1.51 2.4849999
0.059999999 1.5599999 -0.465
0.059999999 1.5599999 -0.41499999
0.059999999 1.5599999 -0.36500001
0.059999999 1.5599999 -0.315
0.059999999 1.5599999 -0.26499999
0.059999999 1.5599999 -0.215
0.059999999 1.5599999 -0.16500001
0.059999999 1.5599999 -0.115
0.059999999 1.5599999 -0.064999998
0.059999999 1.5599999 -0.015
0.059999999 1.5599999 0.035
0.059999999 1.5599999 0.085000001
0.059999999 1.5599999 0.13500001
0.059999999 1.5599999 0.185
0.059999999 1.5599999 0.235
0.059999999 1.5599999 0.285
0.059999999 1.5599999 0.33500001
0.059999999 1.5599999 0.38499999
0.059999999 1.5599999 0.435
0.059999999 1.5599999 0.48500001
0.059999999 1.5599999 0.53500003
0.059999999 1.5599999 0.58499998
0.059999999 1.5599999 0.63499999
0.059999999 1.5599999 0.685
0.059999999 1.5599999 0.73500001
0.059999999 1.5599999 0.78500003
0.059999999 1.5599999 0.83499998
0.059999999 1.5599999 0.88499999
0.059999999 1.5599999 0.935
0.059999999 1.5599999 0.98500001
0.059999999 1.5599999 1.035
0.059999999 1.5599999 1.085
0.059999999 1.5599999 1.135
0.059999999 1.5599999 1.1849999
0.059999999 1.5599999 1.235
0.059999999 1.5599999 1.285
0.059999999 1.5599999 1.335
0.059999999 1.5599999 1.385
0.059999999 1.5599999 1.4349999
0.059999999 1.5599999 1.485
0.059999999 1.5599999 1.535
0.059999999 1.5599999 1.585
0.059999999 1.5599999 1.635
0.059999999 1.5599999 1.6849999
0.059999999 1.5599999 1.735
0.059999999 1.5599999 1.785
0.059999999 1.5599999 1.835
0.059999999 1.5599999 1.885
0.059999999 1.5599999 1.9349999
0.059999999 1.5599999 1.985
0.059999999 1.5599999 2.0350001
0.059999999 1.5599999 2.085
0.059999999 1.5599999 2.135
0.059999999 1.5599999 2.1849999
0.059999999 1.5599999 2.2349999
0.059999999 1.5599999 2.2850001
0.059999999 1.5599999 2.335
0.059999999 1.5599999 2.385
0.059999999 1.5599999 2.4349999
0.059999999 1.5599999 2.4849999
0.059999999 1.61 -0.465
0.059999999 1.61 -0.41499999
0.059999999 1.61 -0.36500001
0.059999999 1.61 -0.315
0.059999999 1.61 -0.26499999
0.059999999 1.61 -0.215
0.059999999 1.61 -0.16500001
0.059999999 1.61 -0.115
0.059999999 1.61 -0.064999998
0.059999999 1.61 -0.015
0.059999999 1.61 0.035
0.059999999 1.61 0.085000001
0.059999999 1.61 0.13500001
0.059999999 1.61 0.185
0.059999999 1.61 0.235
0.059999999 1.61 0.285
0.059999999 1.61 0.33500001
0.059999999 1.61 0.38499999
0.059999999 1.61 0.435
0.059999999 1.61 0.48500001
0.059999999 1.61 0.53500003
0.059999999 1.61 0.58499998
0.059999999 1.61 0.63499999
0.059999999 1.61 0.685
0.059999999 1.61 0.73500001
0.059999999 1.61 0.78500003
0.059999999 1.61 0.83499998
0.059999999 1.61 0.88499999
0.059999999 1.61 0.935
0.059999999 1.61 0.98500001
0.059999999 1.61 1.035
0.059999999 1.61 1.085
0.059999999 1.61 1.135
0.059999999 1.61 1.1849999
0.059999999 1.61 1.235
0.059999999 1.61 1.285
0.059999999 1.61 1.335
0.059999999 1.61 1.385
0.059999999 1.61 1.4349999
0.059999999 1.61 1.485
0.059999999 1.61 1.535
0.059999999 1.61 1.585
0.059999999 1.61 1.635
0.059999999 1.61 1.6849999
0.059999999 1.61 1.735
0.059999999 1.61 1.785
0.059999999 1.61 1.835
0.059999999 1.61 1.885
0.059999999 1.61 1.9349999
0.059999999 1.61 1.985
0.059999999 1.61 2.0350001
0.059999999 1.61 2.085
0.059999999 1.61 2.135
0.059999999 1.61 2.1849999
0.059999999 1.61 2.2349999
0.059999999 1.61 2.2850001
0.059999999 1.61 2.335
0.059999999 1.61 2.385
0.059999999 1.61 2.4349999
0.059999999 1.61 2.4849999
0.059999999 1.66 -0.465
0.059999999 1.66 -0.41499999
0.059999999 1.66 -0.36500001
0.059999999 1.66 -0.315
0.059999999 1.66 -0.26499999
0.059999999 1.66 -0.215
0.059999999 1.66 -0.16500001
0.059999999 1.66 -0.115
0.059999999 1.66 -0.064999998
0.059999999 1.66 -0.015
0.059999999 1.66 0.035
0.059999999 1.66 0.085000001
0.059999999 1.66 0.13500001
0.059999999 1.66 0.185
0.059999999 1.66 0.235
0.059999999 1.66 0.285
0.059999999 1.66 0.33500001
0.059999999 1.66 0.38499999
0.059999999 1.66 0.435
0.059999999 1.66 0.48500001
0.059999999 1.66 0.53500003
0.059999999 1.66 0.58499998
0.059999999 1.66 0.63499999
0.059999999 1.66 0.685
0.059999999 1.66 0.73500001
0.059999999 1.66 0.78500003
0.059999999 1.66 0.83499998
0.059999999 1.66 0.88499999
0.059999999 1.66 0.935
0.059999999 1.66 0.98500001
0.059999999 1.66 1.035
0.059999999 1.66 1.085
0.059999999 1.66 1.135
0.059999999 1.66 1.1849999
0.059999999 1.66 1.235
0.059999999 1.66 1.285
0.059999999 1.66 1.335
0.059999999 1.66 1.385
0.059999999 1.66 1.4349999
0.059999999 1.66 1.485
0.059999999 1.66 1.535
0.059999999 1.66 1.585
0.059999999 1.66 1.635
0.059999999 1.66 1.6849999
0.059999999 1.66 1.735
0.059999999 1.66 1.785
0.059999999 1.66 1.835
0.059999999 1.66 1.885
0.059999999 1.66 1.9349999
0.059999999 1.66 1.985
0.059999999 1.66 2.0350001
0.059999999 1.66 2.085
0.059999999 1.66 2.135
0.059999999 1.66 2.1849999
0.059999999 1.66 2.2349999
0.059999999 1.66 2.2850001
0.059999999 1.66 2.335
0.059999999 1.66 2.385
0.059999999 1.66 2.4349999
0.059999999 1.66 2.4849999
0.059999999 1.71 -0.465
0.059999999 1.71 -0.41499999
0.059999999 1.71 -0.36500001
0.059999999 1.71 -0.315
0.059999999 1.71 -0.26499999
0.059999999 1.71 -0.215
0.059999999 1.71 -0.16500001
0.059999999 1.71 -0.115
0.059999999 1.71 -0.064999998
0.059999999 1.71 -0.015
0.059999999 1.71 0.035
0.059999999 1.71 0.085000001
0.059999999 1.71 0.13500001
0.059999999 1.71 0.185
0.059999999 1.71 0.235
0.059999999 1.71 0.285
0.059999999 1.71 0.33500001
0.059999999 1.71 0.38499999
0.059999999 1.71 0.435
0.059999999 1.71 0.48500001
0.059999999 1.71 0.53500003
0.059999999 1.71 0.58499998
0.059999999 1.71 0.63499999
0.059999999 1.71 0.685
0.059999999 1.71 0.73500001
0.059999999 1.71 0.78500003
0.059999999 1.71 0.83499998
0.059999999 1.71 0.88499999
0.059999999 1.71 0.935
0.059999999 1.71 0.98500001
0.059999999 1.71 1.035
0.059999999 1.71 1.085
0.059999999 1.71 1.135
0.059999999 1.71 1.1849999
0.059999999 1.71 1.235
0.059999999 1.71 1.285
0.059999999 1.71 1.335
0.059999999 1.71 1.385
0.059999999 1.71 1.4349999
0.059999999 1.71 1.485
0.059999999 1.71 1.535
0.059999999 1.71 1.585
0.059999999 1.71 1.635
0.059999999 1.71 1.6849999
0.059999999 1.71 1.735
0.059999999 1.71 1.785
0.059999999 1.71 1.835
0.059999999 1.71 1.885
0.059999999 1.71 1.9349999
0.059999999 1.71 1.985
0.059999999 1.71 2.0350001
0.059999999 1.71 2.085
0.059999999 1.71 2.135
0.059999999 1.71 2.1849999
0.059999999 1.71 2.2349999
0.059999999 1.71 2.2850001
0.059999999 1.71 2.335
0.059999999 1.71 2.385
0.059999999 1.71 2.4349999
0.059999999 1.71 2.4849999
0.11 1.46 -0.465
0.11 1.46 -0.41499999
0.11 1.46 -0.36500001
0.11 1.46 -0.315
0.11 1.46 -0.26499999
0.11 1.46 -0.215
0.11 1.46 -0.16500001
0.11 1.46 -0.115
0.11 1.46 -0.064999998
0.11 1.46 -0.015
0.11 1.46 0.035
0.11 1.46 0.085000001
0.11 1.46 0.13500001
0.11 1.46 0.185
0.11 1.46 0.235
0.11 1.46 0.285
0.11 1.46 0.33500001
0.11 1.46 0.38499999
0.11 1.46 0.435
0.11 1.46 0.48500001
0.11 1.46 0.53500003
0.11 1.46 0.58499998
0.11 1.46 0.63499999
0.11 1.46 0.685
0.11 1.46 0.73500001
0.11 1.46 0.78500003
0.11 1.46 0.83499998
0.11 1.46 0.88499999
0.11 1.46 0.935
0.11 1.46 0.98500001
0.11 1.46 1.035
0.11 1.46 1.085
0.11 1.46 1.135
0.11 1.46 1.1849999
0.11 1.46 1.235
0.11 1.46 1.285
0.11 1.46 1.335
0.11 1.46 1.385
0.11 1.46 1.4349999
0.11 1.46 1.485
0.11 1.46 1.535
0.11 1.46 1.585
0.11 1.46 1.635
0.11 1.46 1.6849999
0.11 1.46 1.735
0.11 1.46 1.785
0.11 1.46 1.835
0.11 1.46 1.885
0.11 1.46 1.9349999
0.11 1.46 1.985
0.11 1.46 2.0350001
0.11 1.46 2.085
0.11 1.46 2.135
0.11 1.46 2.1849999
0.11 1.46 2.2349999
0.11 1.46 2.2850001
0.11 1.46 2.335
0.11 1.46 2.385
0.11 1.46 2.4349999
0.11 1.46 2.4849999
0.11 1.51 -0.465
0.11 1.51 -0.41499999
0.11 1.51 -0.36500001
0.11 1.51 -0.315
0.11 1.51 -0.26499999
0.11 1.51 -0.215
0.11 1.51 -0.16500001
0.11 1.51 -0.115
0.11 1.51 -0.064999998
0.11 1.51 -0.015
0.11 1.51 0.035
0.11 1.51 0.085000001
0.11 1.51 0.13500001
0.11 1.51 0.185
0.11 1.51 0.235
0.11 1.51 0.285
0.11 1.51 0.33500001
0.11 1.51 0.38499999
0.11 1.51 0.435
0.11 1.51 0.48500001
0.11 1.51 0.53500003
0.11 1.51 0.58499998
0.11 1.51 0.63499999
0.11 1.51 0.685
0.11 1.51 0.73500001
0.11 1.51 0.78500003
0.11 1.51 0.83499998
0.11 1.51 0.88499999
0.11 1.51 0.935
0.11 1.51 0.98500001
0.11 1.51 1.035
0.11 1.51 1.085
0.11 1.51 1.135
0.11 1.51 1.1849999
0.11 1.51 1.235
0.11 1.51 1.285
0.11 1.51 1.335
0.11 1.51 1.385
0.11 1.51 1.4349999
0.11 1.51 1.485
0.11 1.51 1.535
0.11 1.51 1.585
0.11 1.51 1.635
0.11 1.51 1.6849999
0.11 1.51 1.735
0.11 1.51 1.785
0.11 1.51 1.835
0.11 1.51 1.885
0.11 1.51 1.9349999
0.11 1.51 1.985
0.11 1.51 2.0350001
0.11 1.51 2.085
0.11 1.51 2.135
0.11 1.51 2.1849999
0.11 1.51 2.2349999
0.11 1.51 2.2850001
0.11 1.51 2.335
0.11 1.51 2.385
0.11 1.51 2.4349999
0.11 1.51 2.4849999
0.11 1.5599999 -0.465
0.11 1.5599999 -0.41499999
0.11 1.5599999 -0.36500001
0.11 1.5599999 -0.315
0.11 1.5599999 -0.26499999
0.11 1.5599999 -0.215
0.11 1.5599999 -0.16500001
0.11 1.5599999 -0.115
0.11 1.5599999 -0.064999998
0.11 1.5599999 -0.015
0.11 1.5599999 0.035
0.11 1.5599999 0.085000001
0.11 1.5599999 0.13500001
0.11 1.5599999 0.185
0.11 1.5599999 0.235
0.11 1.5599999 0.285
0.11 1.5599999 0.33500001
0.11 1.5599999 0.38499999
0.11 1.5599999 0.435
0.11 1.5599999 0.48500001
0.11 1.5599999 0.53500003
0.11 1.5599999 0.58499998
0.11 1.5599999 0.63499999
0.11 1.5599999 0.685
0.11 1.5599999 0.73500001
0.11 1.5599999 0.78500003
0.11 1.5599999 0.83499998
0.11 1.5599999 0.88499999
0.11 1.5599999 0.935
0.11 1.5599999 0.98500001
0.11 1.5599999 1.035
0.11 1.5599999 1.085
0.11 1.5599999 1.135
0.11 1.5599999 1.1849999
0.11 1.5599999 1.235
0.11 1.5599999 1.285
0.11 1.5599999 1.335
0.11 1.5599999 1.385
0.11 1.5599999 1.4349999
0.11 1.5599999 1.485
0.11 1.5599999 1.535
0.11 1.5599999 1.585
0.11 1.5599999 1.635
0.11 1.5599999 1.6849999
0.11 1.5599999 1.735
0.11 1.5599999 1.785
0.11 1.5599999 1.835
0.11 1.5599999 1.885
0.11 1.5599999 1.9349999
0.11 1.5599999 1.985
0.11 1.5599999 2.0350001
0.11 1.5599999 2.085
0.11 1.5599999 2.135
0.11 1.5599999 2.1849999
0.11 1.5599999 2.2349999
0.11 1.5599999 2.2850001
0.11 1.5599999 2.335
0.11 1.5599999 2.385
0.11 1.5599999 2.4349999
0.11 1.5599999 2.4849999
0.11 1.61 -0.465
0.11 1.61 -0.41499999
0.11 1.61 -0.36500001
0.11 1.61 -0.315
0.11 1.61 -0.26499999
0.11 1.61 -0.215
0.11 1.61 -0.16500001
0.11 1.61 -0.115
0.11 1.61 -0.064999998
0.11 1.61 -0.015
0.11 1.61 0.035
0.11 1.61 0.085000001
0.11 1.61 0.13500001
0.11 1.61 0.185
0.11 1.61 0.235
0.11 1.61 0.285
0.11 1.61 0.33500001
0.11 1.61 0.38499999
0.11 1.61 0.435
0.11 1.61 0.48500001
0.11 1.61 0.53500003
0.11 1.61 0.58499998
0.11 1.61 0.63499999
0.11 1.61 0.685
0.11 1.61 0.73500001
0.11 1.61 0.78500003
0.11 1.61 0.83499998
0.11 1.61 0.88499999
0.11 1.61 0.935
0.11 1.61 0.98500001
0.11 1.61 1.035
0.11 1.61 1.085
0.11 1.61 1.135
0.11 1.61 1.1849999
0.11 1.61 1.235
0.11 1.61 1.285
0.11 1.61 1.335
0.11 1.61 1.385
0.11 1.61 1.4349999
0.11 1.61 1.485
0.11 1.61 1.535
0.11 1.61 1.585
0.11 1.61 1.635
0.11 1.61 1.6849999
0.11 1.61 1.735
0.11 1.61 1.785
0.11 1.61 1.835
0.11 1.61 1.885
0.11 1.61 1.9349999
0.11 1.61 1.985
0.11 1.61 2.0350001
0.11 1.61 2.085
0.11 1.61 2.135
0.11 1.61 2.1849999
0.11 1.61 2.2349999
0.11 1.61 2.2850001
0.11 1.61 2.335
0.11 1.61 2.385
0.11 1.61 2.4349999
0.11 1.61 2.4849999
0.11 1.66 -0.465
0.11 1.66 -0.41499999
0.11 1.66 -0.36500001
0.11 1.66 -0.315
0.11 1.66 -0.26499999
0.11 1.66 -0.215
0.11 1.66 -0.16500001
0.11 1.66 -0.115
0.11 1.66 -0.064999998
0.11 1.66 -0.015
0.11 1.66 0.035
0.11 1.66 0.085000001
0.11 1.66 0.13500001
0.11 1.66 0.185
0.11 1.66 0.235
0.11 1.66 0.285
0.11 1.66 0.33500001
0.11 1.66 0.38499999
0.11 1.66 0.435
0.11 1.66 0.48500001
0.11 1.66 0.53500003
0.11 1.66 0.58499998
0.11 1.66 0.63499999
0.11 1.66 0.685
0.11 1.66 0.73500001
0.11 1.66 0.78500003
0.11 1.66 0.83499998
0.11 1.66 0.88499999
0.11 1.66 0.935
0.11 1.66 0.98500001
0.11 1.66 1.035
0.11 1.66 1.085
0.11 1.66 1.135
0.11 1.66 1.1849999
0.11 1.66 1.235
0.11 1.66 1.285
0.11 1.66 1.335
0.11 1.66 1.385
0.11 1.66 1.4349999
0.11 1.66 1.485
0.11 1.66 1.535
0.11 1.66 1.585
0.11 1.66 1.635
0.11 1.66 1.6849999
0.11 1.66 1.735
0.11 1.66 1.785
0.11 1.66 1.835
0.11 1.66 1.885
0.11 1.66 1.9349999
0.11 1.66 1.985
0.11 1.66 2.0350001
0.11 1.66 2.085
0.11 1.66 2.135
0.11 1.66 2.1849999
0.11 1.66 2.2349999
0.11 1.66 2.2850001
0.11 1.66 2.335
0.11 1.66 2.385
0.11 1.66 2.4349999
0.11 1.66 2.4849999
0.16 1.51 -0.465
0.16 1.51 -0.41499999
0.16 1.51 -0.36500001
0.16 1.51 -0.315
0.16 1.51 -0.26499999
0.16 1.51 -0.215
0.16 1.51 -0.16500001
0.16 1.51 -0.115
0.16 1.51 -0.064999998
0.16 1.51 -0.015
0.16 1.51 0.035
0.16 1.51 0.085000001
0.16 1.51 0.13500001
0.16 1.51 0.185
0.16 1.51 0.235
0.16 1.51 0.285
0.16 1.51 0.33500001
0.16 1.51 0.38499999
0.16 1.51 0.435
0.16 1.51 0.48500001
0.16 1.51 0.53500003
0.16 1.51 0.58499998
0.16 1.51 0.63499999
0.16 1.51 0.685
0.16 1.51 0.73500001
0.16 1.51 0.78500003
0.16 1.51 0.83499998
0.16 1.51 0.88499999
0.16 1.51 0.935
0.16 1.51 0.98500001
0.16 1.51 1.035
0.16 1.51 1.085
0.16 1.51 1.135
0.16 1.51 1.1849999
0.16 1.51 1.235
0.16 1.51 1.285
0.16 1.51 1.335
0.16 1.51 1.385
0.16 1.51 1.4349999
0.16 1.51 1.485
0.16 1.51 1.535
0.16 1.51 1.585
0.16 1.51 1.635
0.16 1.51 1.6849999
0.16 1.51 1.735
0.16 1.51 1.785
0.16 1.51 1.835
0.16 1.51 1.885
0.16 1.51 1.9349999
0.16 1.51 1.985
0.16 1.51 2.0350001
0.16 1.51 2.085
0.16 1.51 2.135
0.16 1.51 2.1849999
0.16 1.51 2.2349999
0.16 1.51 2.2850001
0.16 1.51 2.335
0.16 1.51 2.385
0.16 1.51 2.4349999
0.16 1.51 2.4849999
0.16 1.5599999 -0.465
0.16 1.5599999 -0.41499999
0.16 1.5599999 -0.36500001
0.16 1.5599999 -0.315
0.16 1.5599999 -0.26499999
0.16 1.5599999 -0.215
0.16 1.5599999 -0.16500001
0.16 1.5599999 -0.115
0.16 1.5599999 -0.064999998
0.16 1.5599999 -0.015
0.16 1.5599999 0.035
0.16 1.5599999 0.085000001
0.16 1.5599999 0.13500001
0.16 1.5599999 0.185
0.16 1.5599999 0.235
0.16 1.5599999 0.285
0.16 1.5599999 0.33500001
0.16 1.5599999 0.38499999
0.16 1.5599999 0.435
0.16 1.5599999 0.48500001
0.16 1.5599999 0.53500003
0.16 1.5599999 0.58499998
0.16 1.5599999 0.63499999
0.16 1.5599999 0.685
0.16 1.5599999 0.73500001
0.16 1.5599999 0.78500003
0.16 1.5599999 0.83499998
0.16 1.5599999 0.88499999
0.16 1.5599999 0.935
0.16 1.5599999 0.98500001
0.16 1.5599999 1.035
0.16 1.5599999 1.085
0.16 1.5599999 1.135
0.16 1.5599999 1.1849999
0.16 1.5599999 1.235
0.16 1.5599999 1.285
0.16 1.5599999 1.335
0.16 1.5599999 1.385
0.16 1.5599999 1.4349999
0.16 1.5599999 1.485
0.16 1.5599999 1.535
0.16 1.5599999 1.585
0.16 1.5599999 1.635
0.16 1.5599999 1.6849999
0.16 1.5599999 1.735
0.16 1.5599999 1.785
0.16 1.5599999 1.835
0.16 1.5599999 1.885
0.16 1.5599999 1.9349999
0.16 1.5599999 1.985
0.16 1.5599999 2.0350001
0.16 1.5599999 2.085
0.16 1.5599999 2.135
0.16 1.5599999 2.1849999
0.16 1.5599999 2.2349999
0.16 1.5599999 2.2850001
0.16 1.5599999 2.335
0.16 1.5599999 2.385
0.16 1.5599999 2.4349999
0.16 1.5599999 2.4849999
0.16 1.61 -0.465
0.16 1.61 -0.41499999
0.16 1.61 -0.36500001
0.16 1.61 -0.315
0.16 1.61 -0.26499999
0.16 1.61 -0.215
0.16 1.61 -0.16500001
0.16 1.61 -0.115
0.16 1.61 -0.064999998
0.16 1.61 -0.015
0.16 1.61 0.035
0.16 1.61 0.085000001
0.16 1.61 0.13500001
0.16 1.61 0.185
0.16 1.61 0.235
0.16 1.61 0.285
0.16 1.61 0.33500001
0.16 1.61 0.38499999
0.16 1.61 0.435
0.16 1.61 0.48500001
0.16 1.61 0.53500003
0.16 1.61 0.58499998
0.16 1.61 0.63499999
0.16 1.61 0.685
0.16 1.61 0.73500001
0.16 1.61 0.78500003
0.16 1.61 0.83499998
0.16 1.61 0.88499999
0.16 1.61 0.935
0.16 1.61 0.98500001
0.16 1.61 1.035
0.16 1.61 1.085
0.16 1.61 1.135
0.16 1.61 1.1849999
0.16 1.61 1.235
0.16 1.61 1.285
0.16 1.61 1.335
0.16 1.61 1.385
0.16 1.61 1.4349999
0.16 1.61 1.485
0.16 1.61 1.535
0.16 1.61 1.585
0.16 1.61 1.635
0.16 1.61 1.6849999
0.16 1.61 1.735
0.16 1.61 1.785
0.16 1.61 1.835
0.16 1.61 1.885
0.16 1.61 1.9349999
0.16 1.61 1.985
0.16 1.61 2.0350001
0.16 1.61 2.085
0.16 1.61 2.135
0.16 1.61 2.1849999
0.16 1.61 2.2349999
0.16 1.61 2.2850001
0.16 1.61 2.335
0.16 1.61 2.385
0.16 1.61 2.4349999
0.16 1.61 2.4849999
-0.090000004 -1.59 -0.465
-0.090000004 -1.59 -0.41499999
-0.090000004 -1.59 -0.36500001
-0.090000004 -1.59 -0.315
-0.090000004 -1.59 -0.26499999
-0.090000004 -1.59 -0.215
-0.090000004 -1.59 -0.16500001
-0.090000004 -1.59 -0.115
-0.090000004 -1.59 -0.064999998
-0.090000004 -1.59 -0.015
-0.090000004 -1.59 0.035
-0.090000004 -1.59 0.085000001
-0.090000004 -1.59 0.13500001
-0.090000004 -1.59 0.185
-0.090000004 -1.59 0.235
-0.090000004 -1.59 0.285
-0.090000004 -1.59 0.33500001
-0.090000004 -1.59 0.38499999
-0.090000004 -1.59 0.435
-0.090000004 -1.59 0.48500001
-0.090000004 -1.59 0.53500003
-0.090000004 -1.59 0.58499998
-0.090000004 -1.59 0.63499999
-0.090000004 -1.59 0.685
-0.090000004 -1.59 0.73500001
-0.090000004 -1.59 0.78500003
-0.090000004 -1.59 0.83499998
-0.090000004 -1.59 0.88499999
-0.090000004 -1.59 0.935
-0.090000004 -1.59 0.98500001
-0.090000004 -1.59 1.035
-0.090000004 -1.59 1.085
-0.090000004 -1.59 1.135
-0.090000004 -1.59 1.1849999
-0.090000004 -1.59 1.235
-0.090000004 -1.59 1.285
-0.090000004 -1.59 1.335
-0.090000004 -1.59 1.385
-0.090000004 -1.59 1.4349999
-0.090000004 -1.59 1.485
-0.090000004 -1.59 1.535
-0.090000004 -1.59 1.585
-0.090000004 -1.59 1.635
-0.090000004 -1.59 1.6849999
-0.090000004 -1.59 1.735
-0.090000004 -1.59 1.785
-0.090000004 -1.59 1.835
-0.090000004 -1.59 1.885
-0.090000004 -1.59 1.9349999
-0.090000004 -1.59 1.985
-0.090000004 -1.59 2.0350001
-0.090000004 -1.59 2.085
-0.090000004 -1.59 2.135
-0.090000004 -1.59 2.1849999
-0.090000004 -1.59 2.2349999
-0.090000004 -1.59 2.2850001
-0.090000004 -1.59 2.335
-0.090000004 -1.59 2.385
-0.090000004 -1.59 2.4349999
-0.090000004 -1.59 2.4849999
-0.090000004 -1.54 -0.465
-0.090000004 -1.54 -0.41499999
-0.090000004 -1.54 -0.36500001
-0.090000004 -1.54 -0.315
-0.090000004 -1.54 -0.26499999
-0.090000004 -1.54 -0.215
-0.090000004 -1.54 -0.16500001
-0.090000004 -1.54 -0.115
-0.090000004 -1.54 -0.064999998
-0.090000004 -1.54 -0.015
-0.090000004 -1.54 0.035
-0.090000004 -1.54 0.085000001
-0.090000004 -1.54 0.13500001
-0.090000004 -1.54 0.185
-0.090000004 -1.54 0.235
-0.090000004 -1.54 0.285
-0.090000004 -1.54 0.33500001
-0.090000004 -1.54 0.38499999
-0.090000004 -1.54 0.435
-0.090000004 -1.54 0.48500001
-0.090000004 -1.54 0.53500003
-0.090000004 -1.54 0.58499998
-0.090000004 -1.54 0.63499999
-0.090000004 -1.54 0.685
-0.090000004 -1.54 0.73500001
-0.090000004 -1.54 0.78500003
-0.090000004 -1.54 0.83499998
-0.090000004 -1.54 0.88499999
-0.090000004 -1.54 0.935
-0.090000004 -1.54 0.98500001
-0.090000004 -1.54 1.035
-0.090000004 -1.54 1.085
-0.090000004 -1.54 1.135
-0.090000004 -1.54 1.1849999
-0.090000004 -1.54 1.235
-0.090000004 -1.54 1.285
-0.090000004 -1.54 1.335
-0.090000004 -1.54 1.385
-0.090000004 -1.54 1.4349999
-0.090000004 -1.54 1.485
-0.090000004 -1.54 1.535
-0.090000004 -1.54 1.585
-0.090000004 -1.54 1.635
-0.090000004 -1.54 1.6849999
-0.090000004 -1.54 1.735
-0.090000004 -1.54 1.785
-0.090000004 -1.54 1.835
-0.090000004 -1.54 1.885
-0.090000004 -1.54 1.9349999
-0.090000004 -1.54 1.985
-0.090000004 -1.54 2.0350001
-0.090000004 -1.54 2.085
-0.090000004 -1.54 2.135
