# .PCD v0.7 - Point Cloud Data file format
VERSION 0.7
FIELDS x y z
SIZE 4 4 4
TYPE F F F
COUNT 1 1 1
WIDTH 1708
HEIGHT 1
VIEWPOINT 0 0 0 1 0 0 0
POINTS 1708
DATA ascii
-0.36500001 -2.5250001 1.96
-0.36500001 -2.5250001 2.01
-0.36500001 -2.5250001 2.0599999
-0.36500001 -2.5250001 2.1099999
-0.36500001 -2.5250001 2.1600001
-0.36500001 -2.5250001 2.21
-0.36500001 -2.5250001 2.26
-0.36500001 -2.5250001 2.3099999
-0.36500001 -2.5250001 2.3599999
-0.36500001 -2.5250001 2.4100001
-0.36500001 -2.5250001 2.46
-0.36500001 -2.5250001 2.51
-0.36500001 -2.5250001 2.5599999
-0.36500001 -2.5250001 2.6099999
-0.36500001 -2.5250001 2.6600001
-0.36500001 -2.5250001 2.71
-0.36500001 -2.5250001 2.76
-0.36500001 -2.5250001 2.8099999
-0.36500001 -2.5250001 2.8599999
-0.36500001 -2.5250001 2.9100001
-0.36500001 -2.5250001 2.96
-0.315 -2.5250001 0.0099999998
-0.315 -2.5250001 0.059999999
-0.315 -2.5250001 0.11
-0.315 -2.5250001 0.16
-0.315 -2.5250001 0.20999999
-0.315 -2.5250001 0.25999999
-0.315 -2.5250001 0.31
-0.315 -2.5250001 0.36000001
-0.315 -2.5250001 0.41
-0.315 -2.5250001 0.46000001
-0.315 -2.5250001 0.50999999
-0.315 -2.5250001 0.56
-0.315 -2.5250001 0.61000001
-0.315 -2.5250001 0.66000003
-0.315 -2.5250001 0.70999998
-0.315 -2.5250001 0.75999999
-0.315 -2.5250001 0.81
-0.315 -2.5250001 0.86000001
-0.315 -2.5250001 0.91000003
-0.315 -2.5250001 0.95999998
-0.315 -2.5250001 1.01
-0.315 -2.5250001 1.0599999
-0.315 -2.5250001 1.11
-0.315 -2.5250001 1.16
-0.315 -2.5250001 1.21
-0.315 -2.5250001 1.26
-0.315 -2.5250001 1.3099999
-0.315 -2.5250001 1.36
-0.315 -2.5250001 1.41
-0.315 -2.5250001 1.46
-0.315 -2.5250001 1.51
-0.315 -2.5250001 1.5599999
-0.315 -2.5250001 1.61
-0.315 -2.5250001 1.66
-0.315 -2.5250001 1.71
-0.315 -2.5250001 1.76
-0.315 -2.5250001 1.8099999
-0.315 -2.5250001 1.86
-0.315 -2.5250001 1.91
-0.315 -2.5250001 1.96
-0.315 -2.5250001 2.01
-0.315 -2.5250001 2.0599999
-0.315 -2.5250001 2.1099999
-0.315 -2.5250001 2.1600001
-0.315 -2.5250001 2.21
-0.315 -2.5250001 2.26
-0.315 -2.5250001 2.3099999
-0.315 -2.5250001 2.3599999
-0.315 -2.5250001 2.4100001
-0.315 -2.5250001 2.46
-0.315 -2.5250001 2.51
-0.315 -2.5250001 2.5599999
-0.315 -2.5250001 2.6099999
-0.315 -2.5250001 2.6600001
-0.315 -2.5250001 2.71
-0.315 -2.5250001 2.76
-0.315 -2.5250001 2.8099999
-0.315 -2.5250001 2.8599999
-0.315 -2.5250001 2.9100001
-0.315 -2.5250001 2.96
-0.26499999 -2.5250001 0.0099999998
-0.26499999 -2.5250001 0.059999999
-0.26499999 -2.5250001 0.11
-0.26499999 -2.5250001 0.16
-0.26499999 -2.5250001 0.20999999
-0.26499999 -2.5250001 0.25999999
-0.26499999 -2.5250001 0.31
-0.26499999 -2.5250001 0.36000001
-0.26499999 -2.5250001 0.41
-0.26499999 -2.5250001 0.46000001
-0.26499999 -2.5250001 0.50999999
-0.26499999 -2.5250001 0.56
-0.26499999 -2.5250001 0.61000001
-0.26499999 -2.5250001 0.66000003
-0.26499999 -2.5250001 0.70999998
-0.26499999 -2.5250001 0.75999999
-0.26499999 -2.5250001 0.81
-0.26499999 -2.5250001 0.86000001
-0.26499999 -2.5250001 0.91000003
-0.26499999 -2.5250001 0.95999998
-0.26499999 -2.5250001 1.01
-0.26499999 -2.5250001 1.0599999
-0.26499999 -2.5250001 1.11
-0.26499999 -2.5250001 1.16
-0.26499999 -2.5250001 1.21
-0.26499999 -2.5250001 1.26
-0.26499999 -2.5250001 1.3099999
-0.26499999 -2.5250001 1.36
-0.26499999 -2.5250001 1.41
-0.26499999 -2.5250001 1.46
-0.26499999 -2.5250001 1.51
-0.26499999 -2.5250001 1.5599999
-0.26499999 -2.5250001 1.61
-0.26499999 -2.5250001 1.66
-0.26499999 -2.5250001 1.71
-0.26499999 -2.5250001 1.76
-0.26499999 -2.5250001 1.8099999
-0.26499999 -2.5250001 1.86
-0.26499999 -2.5250001 1.91
-0.26499999 -2.5250001 1.96
-0.26499999 -2.5250001 2.01
-0.26499999 -2.5250001 2.0599999
-0.26499999 -2.5250001 2.1099999
-0.26499999 -2.5250001 2.1600001
-0.26499999 -2.5250001 2.21
-0.26499999 -2.5250001 2.26
-0.26499999 -2.5250001 2.3099999
-0.26499999 -2.5250001 2.3599999
-0.26499999 -2.5250001 2.4100001
-0.26499999 -2.5250001 2.46
-0.26499999 -2.5250001 2.51
-0.26499999 -2.5250001 2.5599999
-0.26499999 -2.5250001 2.6099999
-0.26499999 -2.5250001 2.6600001
-0.26499999 -2.5250001 2.71
-0.26499999 -2.5250001 2.76
-0.26499999 -2.5250001 2.8099999
-0.26499999 -2.5250001 2.8599999
-0.26499999 -2.5250001 2.9100001
-0.26499999 -2.5250001 2.96
-0.215 -2.5250001 0.0099999998
-0.215 -2.5250001 0.059999999
-0.215 -2.5250001 0.11
-0.215 -2.5250001 0.16
-0.215 -2.5250001 0.20999999
-0.215 -2.5250001 0.25999999
-0.215 -2.5250001 0.31
-0.215 -2.5250001 0.36000001
-0.215 -2.5250001 0.41
-0.215 -2.5250001 0.46000001
-0.215 -2.5250001 0.50999999
-0.215 -2.5250001 0.56
-0.215 -2.5250001 0.61000001
-0.215 -2.5250001 0.66000003
-0.215 -2.5250001 0.70999998
-0.215 -2.5250001 0.75999999
-0.215 -2.5250001 0.81
-0.215 -2.5250001 0.86000001
-0.215 -2.5250001 0.91000003
-0.215 -2.5250001 0.95999998
-0.215 -2.5250001 1.01
-0.215 -2.5250001 1.0599999
-0.215 -2.5250001 1.11
-0.215 -2.5250001 1.16
-0.215 -2.5250001 1.21
-0.215 -2.5250001 1.26
-0.215 -2.5250001 1.3099999
-0.215 -2.5250001 1.36
-0.215 -2.5250001 1.41
-0.215 -2.5250001 1.46
-0.215 -2.5250001 1.51
-0.215 -2.5250001 1.5599999
-0.215 -2.5250001 1.61
-0.215 -2.5250001 1.66
-0.215 -2.5250001 1.71
-0.215 -2.5250001 1.76
-0.215 -2.5250001 1.8099999
-0.215 -2.5250001 1.86
-0.215 -2.5250001 1.91
-0.215 -2.5250001 1.96
-0.215 -2.5250001 2.01
-0.215 -2.5250001 2.0599999
-0.215 -2.5250001 2.1099999
-0.215 -2.5250001 2.1600001
-0.215 -2.5250001 2.21
-0.215 -2.5250001 2.26
-0.215 -2.5250001 2.3099999
-0.215 -2.5250001 2.3599999
-0.215 -2.5250001 2.4100001
-0.215 -2.5250001 2.46
-0.215 -2.5250001 2.51
-0.215 -2.5250001 2.5599999
-0.215 -2.5250001 2.6099999
-0.215 -2.5250001 2.6600001
-0.215 -2.5250001 2.71
-0.215 -2.5250001 2.76
-0.215 -2.5250001 2.8099999
-0.215 -2.5250001 2.8599999
-0.215 -2.5250001 2.9100001
-0.215 -2.5250001 2.96
-0.16500001 -2.5250001 0.0099999998
-0.16500001 -2.5250001 0.059999999
-0.16500001 -2.5250001 0.11
-0.16500001 -2.5250001 0.16
-0.16500001 -2.5250001 0.20999999
-0.16500001 -2.5250001 0.25999999
-0.16500001 -2.5250001 0.31
-0.16500001 -2.5250001 0.36000001
-0.16500001 -2.5250001 0.41
-0.16500001 -2.5250001 0.46000001
-0.16500001 -2.5250001 0.50999999
-0.16500001 -2.5250001 0.56
-0.16500001 -2.5250001 0.61000001
-0.16500001 -2.5250001 0.66000003
-0.16500001 -2.5250001 0.70999998
-0.16500001 -2.5250001 0.75999999
-0.16500001 -2.5250001 0.81
-0.16500001 -2.5250001 0.86000001
-0.16500001 -2.5250001 0.91000003
-0.16500001 -2.5250001 0.95999998
-0.16500001 -2.5250001 1.01
-0.16500001 -2.5250001 1.0599999
-0.16500001 -2.5250001 1.11
-0.16500001 -2.5250001 1.16
-0.16500001 -2.5250001 1.21
-0.16500001 -2.5250001 1.26
-0.16500001 -2.5250001 1.3099999
-0.16500001 -2.5250001 1.36
-0.16500001 -2.5250001 1.41
-0.16500001 -2.5250001 1.46
-0.16500001 -2.5250001 1.51
-0.16500001 -2.5250001 1.5599999
-0.16500001 -2.5250001 1.61
-0.16500001 -2.5250001 1.66
-0.16500001 -2.5250001 1.71
-0.16500001 -2.5250001 1.76
-0.16500001 -2.5250001 1.8099999
-0.16500001 -2.5250001 1.86
-0.16500001 -2.5250001 1.91
-0.16500001 -2.5250001 1.96
-0.16500001 -2.5250001 2.01
-0.16500001 -2.5250001 2.0599999
-0.16500001 -2.5250001 2.1099999
-0.16500001 -2.5250001 2.1600001
-0.16500001 -2.5250001 2.21
-0.16500001 -2.5250001 2.26
-0.16500001 -2.5250001 2.3099999
-0.16500001 -2.5250001 2.3599999
-0.16500001 -2.5250001 2.4100001
-0.16500001 -2.5250001 2.46
-0.16500001 -2.5250001 2.51
-0.16500001 -2.5250001 2.5599999
-0.16500001 -2.5250001 2.6099999
-0.16500001 -2.5250001 2.6600001
-0.16500001 -2.5250001 2.71
-0.16500001 -2.5250001 2.76
-0.16500001 -2.5250001 2.8099999
-0.16500001 -2.5250001 2.8599999
-0.16500001 -2.5250001 2.9100001
-0.16500001 -2.5250001 2.96
-0.115 -2.5250001 0.0099999998
-0.115 -2.5250001 0.059999999
-0.115 -2.5250001 0.11
-0.115 -2.5250001 0.16
-0.115 -2.5250001 0.20999999
-0.115 -2.5250001 0.25999999
-0.115 -2.5250001 0.31
-0.115 -2.5250001 0.36000001
-0.115 -2.5250001 0.41
-0.115 -2.5250001 0.46000001
-0.115 -2.5250001 0.50999999
-0.115 -2.5250001 0.56
-0.115 -2.5250001 0.61000001
-0.115 -2.5250001 0.66000003
-0.115 -2.5250001 0.70999998
-0.115 -2.5250001 0.75999999
-0.115 -2.5250001 0.81
-0.115 -2.5250001 0.86000001
-0.115 -2.5250001 0.91000003
-0.115 -2.5250001 0.95999998
-0.115 -2.5250001 1.01
-0.115 -2.5250001 1.0599999
-0.115 -2.5250001 1.11
-0.115 -2.5250001 1.16
-0.115 -2.5250001 1.21
-0.115 -2.5250001 1.26
-0.115 -2.5250001 1.3099999
-0.115 -2.5250001 1.36
-0.115 -2.5250001 1.41
-0.115 -2.5250001 1.46
-0.115 -2.5250001 1.51
-0.115 -2.5250001 1.5599999
-0.115 -2.5250001 1.61
-0.115 -2.5250001 1.66
-0.115 -2.5250001 1.71
-0.115 -2.5250001 1.76
-0.115 -2.5250001 1.8099999
-0.115 -2.5250001 1.86
-0.115 -2.5250001 1.91
-0.115 -2.5250001 1.96
-0.115 -2.5250001 2.01
-0.115 -2.5250001 2.0599999
-0.115 -2.5250001 2.1099999
-0.115 -2.5250001 2.1600001
-0.115 -2.5250001 2.21
-0.115 -2.5250001 2.26
-0.115 -2.5250001 2.3099999
-0.115 -2.5250001 2.3599999
-0.115 -2.5250001 2.4100001
-0.115 -2.5250001 2.46
-0.115 -2.5250001 2.51
-0.115 -2.5250001 2.5599999
-0.115 -2.5250001 2.6099999
-0.115 -2.5250001 2.6600001
-0.115 -2.5250001 2.71
-0.115 -2.5250001 2.76
-0.115 -2.5250001 2.8099999
-0.115 -2.5250001 2.8599999
-0.115 -2.5250001 2.9100001
-0.115 -2.5250001 2.96
-0.064999998 -2.5250001 0.0099999998
-0.064999998 -2.5250001 0.059999999
-0.064999998 -2.5250001 0.11
-0.064999998 -2.5250001 0.16
-0.064999998 -2.5250001 0.20999999
-0.064999998 -2.5250001 0.25999999
-0.064999998 -2.5250001 0.31
-0.064999998 -2.5250001 0.36000001
-0.064999998 -2.5250001 0.41
-0.064999998 -2.5250001 0.46000001
-0.064999998 -2.5250001 0.50999999
-0.064999998 -2.5250001 0.56
-0.064999998 -2.5250001 0.61000001
-0.064999998 -2.5250001 0.66000003
-0.064999998 -2.5250001 0.70999998
-0.064999998 -2.5250001 0.75999999
-0.064999998 -2.5250001 0.81
-0.064999998 -2.5250001 0.86000001
-0.064999998 -2.5250001 0.91000003
-0.064999998 -2.5250001 0.95999998
-0.064999998 -2.5250001 1.01
-0.064999998 -2.5250001 1.0599999
-0.064999998 -2.5250001 1.11
-0.064999998 -2.5250001 1.16
-0.064999998 -2.5250001 1.21
-0.064999998 -2.5250001 1.26
-0.064999998 -2.5250001 1.3099999
-0.064999998 -2.5250001 1.36
-0.064999998 -2.5250001 1.41
-0.064999998 -2.5250001 1.46
-0.064999998 -2.5250001 1.51
-0.064999998 -2.5250001 1.5599999
-0.064999998 -2.5250001 1.61
-0.064999998 -2.5250001 1.66
-0.064999998 -2.5250001 1.71
-0.064999998 -2.5250001 1.76
-0.064999998 -2.5250001 1.8099999
-0.064999998 -2.5250001 1.86
-0.064999998 -2.5250001 1.91
-0.064999998 -2.5250001 1.96
-0.064999998 -2.5250001 2.01
-0.064999998 -2.5250001 2.0599999
-0.064999998 -2.5250001 2.1099999
-0.064999998 -2.5250001 2.1600001
-0.064999998 -2.5250001 2.21
-0.064999998 -2.5250001 2.26
-0.064999998 -2.5250001 2.3099999
-0.064999998 -2.5250001 2.3599999
-0.064999998 -2.5250001 2.4100001
-0.064999998 -2.5250001 2.46
-0.064999998 -2.5250001 2.51
-0.064999998 -2.5250001 2.5599999
-0.064999998 -2.5250001 2.6099999
-0.064999998 -2.5250001 2.6600001
-0.064999998 -2.5250001 2.71
-0.064999998 -2.5250001 2.76
-0.064999998 -2.5250001 2.8099999
-0.064999998 -2.5250001 2.8599999
-0.064999998 -2.5250001 2.9100001
-0.064999998 -2.5250001 2.96
-0.015 -2.5250001 0.0099999998
-0.015 -2.5250001 0.059999999
-0.015 -2.5250001 0.11
-0.015 -2.5250001 0.16
-0.015 -2.5250001 0.20999999
-0.015 -2.5250001 0.25999999
-0.015 -2.5250001 0.31
-0.015 -2.5250001 0.36000001
-0.015 -2.5250001 0.41
-0.015 -2.5250001 0.46000001
-0.015 -2.5250001 0.50999999
-0.015 -2.5250001 0.56
-0.015 -2.5250001 0.61000001
-0.015 -2.5250001 0.66000003
-0.015 -2.5250001 0.70999998
-0.015 -2.5250001 0.75999999
-0.015 -2.5250001 0.81
-0.015 -2.5250001 0.86000001
-0.015 -2.5250001 0.91000003
-0.015 -2.5250001 0.95999998
-0.015 -2.5250001 1.01
-0.015 -2.5250001 1.0599999
-0.015 -2.5250001 1.11
-0.015 -2.5250001 1.16
-0.015 -2.5250001 1.21
-0.015 -2.5250001 1.26
-0.015 -2.5250001 1.3099999
-0.015 -2.5250001 1.36
-0.015 -2.5250001 1.41
-0.015 -2.5250001 1.46
-0.015 -2.5250001 1.51
-0.015 -2.5250001 1.5599999
-0.015 -2.5250001 1.61
-0.015 -2.5250001 1.66
-0.015 -2.5250001 1.71
-0.015 -2.5250001 1.76
-0.015 -2.5250001 1.8099999
-0.015 -2.5250001 1.86
-0.015 -2.5250001 1.91
-0.015 -2.5250001 1.96
-0.015 -2.5250001 2.01
-0.015 -2.5250001 2.0599999
-0.015 -2.5250001 2.1099999
-0.015 -2.5250001 2.1600001
-0.015 -2.5250001 2.21
-0.015 -2.5250001 2.26
-0.015 -2.5250001 2.3099999
-0.015 -2.5250001 2.3599999
-0.015 -2.5250001 2.4100001
-0.015 -2.5250001 2.46
-0.015 -2.5250001 2.51
-0.015 -2.5250001 2.5599999
-0.015 -2.5250001 2.6099999
-0.015 -2.5250001 2.6600001
-0.015 -2.5250001 2.71
-0.015 -2.5250001 2.76
-0.015 -2.5250001 2.8099999
-0.015 -2.5250001 2.8599999
-0.015 -2.5250001 2.9100001
-0.015 -2.5250001 2.96
0.035 -2.5250001 0.0099999998
0.035 -2.5250001 0.059999999
0.035 -2.5250001 0.11
0.035 -2.5250001 0.16
0.035 -2.5250001 0.20999999
0.035 -2.5250001 0.25999999
0.035 -2.5250001 0.31
0.035 -2.5250001 0.36000001
0.035 -2.5250001 0.41
0.035 -2.5250001 0.46000001
0.035 -2.5250001 0.50999999
0.035 -2.5250001 0.56
0.035 -2.5250001 0.61000001
0.035 -2.5250001 0.66000003
0.035 -2.5250001 0.70999998
0.035 -2.5250001 0.75999999
0.035 -2.5250001 0.81
0.035 -2.5250001 0.86000001
0.035 -2.5250001 0.91000003
0.035 -2.5250001 0.95999998
0.035 -2.5250001 1.01
0.035 -2.5250001 1.0599999
0.035 -2.5250001 1.11
0.035 -2.5250001 1.16
0.035 -2.5250001 1.21
0.035 -2.5250001 1.26
0.035 -2.5250001 1.3099999
0.035 -2.5250001 1.36
0.035 -2.5250001 1.41
0.035 -2.5250001 1.46
0.035 -2.5250001 1.51
0.035 -2.5250001 1.5599999
0.035 -2.5250001 1.61
0.035 -2.5250001 1.66
0.035 -2.5250001 1.71
0.035 -2.5250001 1.76
0.035 -2.5250001 1.8099999
0.035 -2.5250001 1.86
0.035 -2.5250001 1.91
0.035 -2.5250001 1.96
0.035 -2.5250001 2.01
0.035 -2.5250001 2.0599999
0.035 -2.5250001 2.1099999
0.035 -2.5250001 2.1600001
0.035 -2.5250001 2.21
0.035 -2.5250001 2.26
0.035 -2.5250001 2.3099999
0.035 -2.5250001 2.3599999
0.035 -2.5250001 2.4100001
0.035 -2.5250001 2.46
0.035 -2.5250001 2.51
0.035 -2.5250001 2.5599999
0.035 -2.5250001 2.6099999
0.035 -2.5250001 2.6600001
0.035 -2.5250001 2.71
0.035 -2.5250001 2.76
0.035 -2.5250001 2.8099999
0.035 -2.5250001 2.8599999
0.035 -2.5250001 2.9100001
0.035 -2.5250001 2.96
0.085000001 -2.5250001 0.0099999998
0.085000001 -2.5250001 0.059999999
0.085000001 -2.5250001 0.11
0.085000001 -2.5250001 0.16
0.085000001 -2.5250001 0.20999999
0.085000001 -2.5250001 0.25999999
0.085000001 -2.5250001 0.31
0.085000001 -2.5250001 0.36000001
0.085000001 -2.5250001 0.41
0.085000001 -2.5250001 0.46000001
0.085000001 -2.5250001 0.50999999
0.085000001 -2.5250001 0.56
0.085000001 -2.5250001 0.61000001
0.085000001 -2.5250001 0.66000003
0.085000001 -2.5250001 0.70999998
0.085000001 -2.5250001 0.75999999
0.085000001 -2.5250001 0.81
0.085000001 -2.5250001 0.86000001
0.085000001 -2.5250001 0.91000003
0.085000001 -2.5250001 0.95999998
0.085000001 -2.5250001 1.01
0.085000001 -2.5250001 1.0599999
0.085000001 -2.5250001 1.11
0.085000001 -2.5250001 1.16
0.085000001 -2.5250001 1.21
0.085000001 -2.5250001 1.26
0.085000001 -2.5250001 1.3099999
0.085000001 -2.5250001 1.36
0.085000001 -2.5250001 1.41
0.085000001 -2.5250001 1.46
0.085000001 -2.5250001 1.51
0.085000001 -2.5250001 1.5599999
0.085000001 -2.5250001 1.61
0.085000001 -2.5250001 1.66
0.085000001 -2.5250001 1.71
0.085000001 -2.5250001 1.76
0.085000001 -2.5250001 1.8099999
0.085000001 -2.5250001 1.86
0.085000001 -2.5250001 1.91
0.085000001 -2.5250001 1.96
0.085000001 -2.5250001 2.01
0.085000001 -2.5250001 2.0599999
0.085000001 -2.5250001 2.1099999
0.085000001 -2.5250001 2.1600001
0.085000001 -2.5250001 2.21
0.085000001 -2.5250001 2.26
0.085000001 -2.5250001 2.3099999
0.085000001 -2.5250001 2.3599999
0.085000001 -2.5250001 2.4100001
0.085000001 -2.5250001 2.46
0.085000001 -2.5250001 2.51
0.085000001 -2.5250001 2.5599999
0.085000001 -2.5250001 2.6099999
0.085000001 -2.5250001 2.6600001
0.085000001 -2.5250001 2.71
0.085000001 -2.5250001 2.76
0.085000001 -2.5250001 2.8099999
0.085000001 -2.5250001 2.8599999
0.085000001 -2.5250001 2.9100001
0.085000001 -2.5250001 2.96
0.13500001 -2.5250001 0.0099999998
0.13500001 -2.5250001 0.059999999
0.13500001 -2.5250001 0.11
0.13500001 -2.5250001 0.16
0.13500001 -2.5250001 0.20999999
0.13500001 -2.5250001 0.25999999
0.13500001 -2.5250001 0.31
0.13500001 -2.5250001 0.36000001
0.13500001 -2.5250001 0.41
0.13500001 -2.5250001 0.46000001
0.13500001 -2.5250001 0.50999999
0.13500001 -2.5250001 0.56
0.13500001 -2.5250001 0.61000001
0.13500001 -2.5250001 0.66000003
0.13500001 -2.5250001 0.70999998
0.13500001 -2.5250001 0.75999999
0.13500001 -2.5250001 0.81
0.13500001 -2.5250001 0.86000001
0.13500001 -2.5250001 0.91000003
0.13500001 -2.5250001 0.95999998
0.13500001 -2.5250001 1.01
0.13500001 -2.5250001 1.0599999
0.13500001 -2.5250001 1.11
0.13500001 -2.5250001 1.16
0.13500001 -2.5250001 1.21
0.13500001 -2.5250001 1.26
0.13500001 -2.5250001 1.3099999
0.13500001 -2.5250001 1.36
0.13500001 -2.5250001 1.41
0.13500001 -2.5250001 1.46
0.13500001 -2.5250001 1.51
0.13500001 -2.5250001 1.5599999
0.13500001 -2.5250001 1.61
0.13500001 -2.5250001 1.66
0.13500001 -2.5250001 1.71
0.13500001 -2.5250001 1.76
0.13500001 -2.5250001 1.8099999
0.13500001 -2.5250001 1.86
0.13500001 -2.5250001 1.91
0.13500001 -2.5250001 1.96
0.13500001 -2.5250001 2.01
0.13500001 -2.5250001 2.0599999
0.13500001 -2.5250001 2.1099999
0.13500001 -2.5250001 2.1600001
0.13500001 -2.5250001 2.21
0.13500001 -2.5250001 2.26
0.13500001 -2.5250001 2.3099999
0.13500001 -2.5250001 2.3599999
0.13500001 -2.5250001 2.4100001
0.13500001 -2.5250001 2.46
0.13500001 -2.5250001 2.51
0.13500001 -2.5250001 2.5599999
0.13500001 -2.5250001 2.6099999
0.13500001 -2.5250001 2.6600001
0.13500001 -2.5250001 2.71
0.13500001 -2.5250001 2.76
0.13500001 -2.5250001 2.8099999
0.13500001 -2.5250001 2.8599999
0.13500001 -2.5250001 2.9100001
0.13500001 -2.5250001 2.96
0.185 -2.5250001 0.0099999998
0.185 -2.5250001 0.059999999
0.185 -2.5250001 0.11
0.185 -2.5250001 0.16
0.185 -2.5250001 0.20999999
0.185 -2.5250001 0.25999999
0.185 -2.5250001 0.31
0.185 -2.5250001 0.36000001
0.185 -2.5250001 0.41
0.185 -2.5250001 0.46000001
0.185 -2.5250001 0.50999999
0.185 -2.5250001 0.56
0.185 -2.5250001 0.61000001
0.185 -2.5250001 0.66000003
0.185 -2.5250001 0.70999998
0.185 -2.5250001 0.75999999
0.185 -2.5250001 0.81
0.185 -2.5250001 0.86000001
0.185 -2.5250001 0.91000003
0.185 -2.5250001 0.95999998
0.185 -2.5250001 1.01
0.185 -2.5250001 1.0599999
0.185 -2.5250001 1.11
0.185 -2.5250001 1.16
0.185 -2.5250001 1.21
0.185 -2.5250001 1.26
0.185 -2.5250001 1.3099999
0.185 -2.5250001 1.36
0.185 -2.5250001 1.41
0.185 -2.5250001 1.46
0.185 -2.5250001 1.51
0.185 -2.5250001 1.5599999
0.185 -2.5250001 1.61
0.185 -2.5250001 1.66
0.185 -2.5250001 1.71
0.185 -2.5250001 1.76
0.185 -2.5250001 1.8099999
0.185 -2.5250001 1.86
0.185 -2.5250001 1.91
0.185 -2.5250001 1.96
0.185 -2.5250001 2.01
0.185 -2.5250001 2.0599999
0.185 -2.5250001 2.1099999
0.185 -2.5250001 2.1600001
0.185 -2.5250001 2.21
0.185 -2.5250001 2.26
0.185 -2.5250001 2.3099999
0.185 -2.5250001 2.3599999
0.185 -2.5250001 2.4100001
0.185 -2.5250001 2.46
0.185 -2.5250001 2.51
0.185 -2.5250001 2.5599999
0.185 -2.5250001 2.6099999
0.185 -2.5250001 2.6600001
0.185 -2.5250001 2.71
0.185 -2.5250001 2.76
0.185 -2.5250001 2.8099999
0.185 -2.5250001 2.8599999
0.185 -2.5250001 2.9100001
0.185 -2.5250001 2.96
0.235 -2.5250001 0.0099999998
0.235 -2.5250001 0.059999999
0.235 -2.5250001 0.11
0.235 -2.5250001 0.16
0.235 -2.5250001 0.20999999
0.235 -2.5250001 0.25999999
0.235 -2.5250001 0.31
0.235 -2.5250001 0.36000001
0.235 -2.5250001 0.41
0.235 -2.5250001 0.46000001
0.235 -2.5250001 0.50999999
0.235 -2.5250001 0.56
0.235 -2.5250001 0.61000001
0.235 -2.5250001 0.66000003
0.235 -2.5250001 0.70999998
0.235 -2.5250001 0.75999999
0.235 -2.5250001 0.81
0.235 -2.5250001 0.86000001
0.235 -2.5250001 0.91000003
0.235 -2.5250001 0.95999998
0.235 -2.5250001 1.01
0.235 -2.5250001 1.0599999
0.235 -2.5250001 1.11
0.235 -2.5250001 1.16
0.235 -2.5250001 1.21
0.235 -2.5250001 1.26
0.235 -2.5250001 1.3099999
0.235 -2.5250001 1.36
0.235 -2.5250001 1.41
0.235 -2.5250001 1.46
0.235 -2.5250001 1.51
0.235 -2.5250001 1.5599999
0.235 -2.5250001 1.61
0.235 -2.5250001 1.66
0.235 -2.5250001 1.71
0.235 -2.5250001 1.76
0.235 -2.5250001 1.8099999
0.235 -2.5250001 1.86
0.235 -2.5250001 1.91
0.235 -2.5250001 1.96
0.235 -2.5250001 2.01
0.235 -2.5250001 2.0599999
0.235 -2.5250001 2.1099999
0.235 -2.5250001 2.1600001
0.235 -2.5250001 2.21
0.235 -2.5250001 2.26
0.235 -2.5250001 2.3099999
0.235 -2.5250001 2.3599999
0.235 -2.5250001 2.4100001
0.235 -2.5250001 2.46
0.235 -2.5250001 2.51
0.235 -2.5250001 2.5599999
0.235 -2.5250001 2.6099999
0.235 -2.5250001 2.6600001
0.235 -2.5250001 2.71
0.235 -2.5250001 2.76
0.235 -2.5250001 2.8099999
0.235 -2.5250001 2.8599999
0.235 -2.5250001 2.9100001
0.235 -2.5250001 2.96
0.285 -2.5250001 0.0099999998
0.285 -2.5250001 0.059999999
0.285 -2.5250001 0.11
0.285 -2.5250001 0.16
0.285 -2.5250001 0.20999999
0.285 -2.5250001 0.25999999
0.285 -2.5250001 0.31
0.285 -2.5250001 0.36000001
0.285 -2.5250001 0.41
0.285 -2.5250001 0.46000001
0.285 -2.5250001 0.50999999
0.285 -2.5250001 0.56
0.285 -2.5250001 0.61000001
0.285 -2.5250001 0.66000003
0.285 -2.5250001 0.70999998
0.285 -2.5250001 0.75999999
0.285 -2.5250001 0.81
0.285 -2.5250001 0.86000001
0.285 -2.5250001 0.91000003
0.285 -2.5250001 0.95999998
0.285 -2.5250001 1.01
0.285 -2.5250001 1.0599999
0.285 -2.5250001 1.11
0.285 -2.5250001 1.16
0.285 -2.5250001 1.21
0.285 -2.5250001 1.26
0.285 -2.5250001 1.3099999
0.285 -2.5250001 1.36
0.285 -2.5250001 1.41
0.285 -2.5250001 1.46
0.285 -2.5250001 1.51
0.285 -2.5250001 1.5599999
0.285 -2.5250001 1.61
0.285 -2.5250001 1.66
0.285 -2.5250001 1.71
0.285 -2.5250001 1.76
0.285 -2.5250001 1.8099999
0.285 -2.5250001 1.86
0.285 -2.5250001 1.91
0.285 -2.5250001 1.96
0.285 -2.5250001 2.01
0.285 -2.5250001 2.0599999
0.285 -2.5250001 2.1099999
0.285 -2.5250001 2.1600001
0.285 -2.5250001 2.21
0.285 -2.5250001 2.26
0.285 -2.5250001 2.3099999
0.285 -2.5250001 2.3599999
0.285 -2.5250001 2.4100001
0.285 -2.5250001 2.46
0.285 -2.5250001 2.51
0.285 -2.5250001 2.5599999
0.285 -2.5250001 2.6099999
0.285 -2.5250001 2.6600001
0.285 -2.5250001 2.71
0.285 -2.5250001 2.76
0.285 -2.5250001 2.8099999
0.285 -2.5250001 2.8599999
0.285 -2.5250001 2.9100001
0.285 -2.5250001 2.96
0.33500001 -2.5250001 0.0099999998
0.33500001 -2.5250001 0.059999999
0.33500001 -2.5250001 0.11
0.33500001 -2.5250001 0.16
0.33500001 -2.5250001 0.20999999
0.33500001 -2.5250001 0.25999999
0.33500001 -2.5250001 0.31
0.33500001 -2.5250001 0.36000001
0.33500001 -2.5250001 0.41
0.33500001 -2.5250001 0.46000001
0.33500001 -2.5250001 0.50999999
0.33500001 -2.5250001 0.56
0.33500001 -2.5250001 0.61000001
0.33500001 -2.5250001 0.66000003
0.33500001 -2.5250001 0.70999998
0.33500001 -2.5250001 0.75999999
0.33500001 -2.5250001 0.81
0.33500001 -2.5250001 0.86000001
0.33500001 -2.5250001 0.91000003
0.33500001 -2.5250001 0.95999998
0.33500001 -2.5250001 1.01
0.33500001 -2.5250001 1.0599999
0.33500001 -2.5250001 1.11
0.33500001 -2.5250001 1.16
0.33500001 -2.5250001 1.21
0.33500001 -2.5250001 1.26
0.33500001 -2.5250001 1.3099999
0.33500001 -2.5250001 1.36
0.33500001 -2.5250001 1.41
0.33500001 -2.5250001 1.46
0.33500001 -2.5250001 1.51
0.33500001 -2.5250001 1.5599999
0.33500001 -2.5250001 1.61
0.33500001 -2.5250001 1.66
0.33500001 -2.5250001 1.71
0.33500001 -2.5250001 1.76
0.33500001 -2.5250001 1.8099999
0.33500001 -2.5250001 1.86
0.33500001 -2.5250001 1.91
0.33500001 -2.5250001 1.96
0.33500001 -2.5250001 2.01
0.33500001 -2.5250001 2.0599999
0.33500001 -2.5250001 2.1099999
0.33500001 -2.5250001 2.1600001
0.33500001 -2.5250001 2.21
0.33500001 -2.5250001 2.26
0.33500001 -2.5250001 2.3099999
0.33500001 -2.5250001 2.3599999
0.33500001 -2.5250001 2.4100001
0.33500001 -2.5250001 2.46
0.33500001 -2.5250001 2.51
0.33500001 -2.5250001 2.5599999
0.33500001 -2.5250001 2.6099999
0.33500001 -2.5250001 2.6600001
0.33500001 -2.5250001 2.71
0.33500001 -2.5250001 2.76
0.33500001 -2.5250001 2.8099999
0.33500001 -2.5250001 2.8599999
0.33500001 -2.5250001 2.9100001
0.33500001 -2.5250001 2.96
0.38499999 -2.5250001 0.0099999998
0.38499999 -2.5250001 0.059999999
0.38499999 -2.5250001 0.11
0.38499999 -2.5250001 0.16
0.38499999 -2.5250001 0.20999999
0.38499999 -2.5250001 0.25999999
0.38499999 -2.5250001 0.31
0.38499999 -2.5250001 0.36000001
0.38499999 -2.5250001 0.41
0.38499999 -2.5250001 0.46000001
0.38499999 -2.5250001 0.50999999
0.38499999 -2.5250001 0.56
0.38499999 -2.5250001 0.61000001
0.38499999 -2.5250001 0.66000003
0.38499999 -2.5250001 0.70999998
0.38499999 -2.5250001 0.75999999
0.38499999 -2.5250001 0.81
0.38499999 -2.5250001 0.86000001
0.38499999 -2.5250001 0.91000003
0.38499999 -2.5250001 0.95999998
0.38499999 -2.5250001 1.01
0.38499999 -2.5250001 1.0599999
0.38499999 -2.5250001 1.11
0.38499999 -2.5250001 1.16
0.38499999 -2.5250001 1.21
0.38499999 -2.5250001 1.26
0.38499999 -2.5250001 1.3099999
0.38499999 -2.5250001 1.36
0.38499999 -2.5250001 1.41
0.38499999 -2.5250001 1.46
0.38499999 -2.5250001 1.51
0.38499999 -2.5250001 1.5599999
0.38499999 -2.5250001 1.61
0.38499999 -2.5250001 1.66
0.38499999 -2.5250001 1.71
0.38499999 -2.5250001 1.76
0.38499999 -2.5250001 1.8099999
0.38499999 -2.5250001 1.86
0.38499999 -2.5250001 1.91
0.38499999 -2.5250001 1.96
0.38499999 -2.5250001 2.01
0.38499999 -2.5250001 2.0599999
0.38499999 -2.5250001 2.1099999
0.38499999 -2.5250001 2.1600001
0.38499999 -2.5250001 2.21
0.38499999 -2.5250001 2.26
0.38499999 -2.5250001 2.3099999
0.38499999 -2.5250001 2.3599999
0.38499999 -2.5250001 2.4100001
0.38499999 -2.5250001 2.46
0.38499999 -2.5250001 2.51
0.38499999 -2.5250001 2.5599999
0.38499999 -2.5250001 2.6099999
0.38499999 -2.5250001 2.6600001
0.38499999 -2.5250001 2.71
0.38499999 -2.5250001 2.76
0.38499999 -2.5250001 2.8099999
0.38499999 -2.5250001 2.8599999
0.38499999 -2.5250001 2.9100001
0.38499999 -2.5250001 2.96
0.435 -2.5250001 0.0099999998
0.435 -2.5250001 0.059999999
0.435 -2.5250001 0.11
0.435 -2.5250001 0.16
0.435 -2.5250001 0.20999999
0.435 -2.5250001 0.25999999
0.435 -2.5250001 0.31
0.435 -2.5250001 0.36000001
0.435 -2.5250001 0.41
0.435 -2.5250001 0.46000001
0.435 -2.5250001 0.50999999
0.435 -2.5250001 0.56
0.435 -2.5250001 0.61000001
0.435 -2.5250001 0.66000003
0.435 -2.5250001 0.70999998
0.435 -2.5250001 0.75999999
0.435 -2.5250001 0.81
0.435 -2.5250001 0.86000001
0.435 -2.5250001 0.91000003
0.435 -2.5250001 0.95999998
0.435 -2.5250001 1.01
0.435 -2.5250001 1.0599999
0.435 -2.5250001 1.11
0.435 -2.5250001 1.16
0.435 -2.5250001 1.21
0.435 -2.5250001 1.26
0.435 -2.5250001 1.3099999
0.435 -2.5250001 1.36
0.435 -2.5250001 1.41
0.435 -2.5250001 1.46
0.435 -2.5250001 1.51
0.435 -2.5250001 1.5599999
0.435 -2.5250001 1.61
0.435 -2.5250001 1.66
0.435 -2.5250001 1.71
0.435 -2.5250001 1.76
0.435 -2.5250001 1.8099999
0.435 -2.5250001 1.86
0.435 -2.5250001 1.91
0.435 -2.5250001 1.96
0.435 -2.5250001 2.01
0.435 -2.5250001 2.0599999
0.435 -2.5250001 2.1099999
0.435 -2.5250001 2.1600001
0.435 -2.5250001 2.21
0.435 -2.5250001 2.26
0.435 -2.5250001 2.3099999
0.435 -2.5250001 2.3599999
0.435 -2.5250001 2.4100001
0.435 -2.5250001 2.46
0.435 -2.5250001 2.51
0.435 -2.5250001 2.5599999
0.435 -2.5250001 2.6099999
0.435 -2.5250001 2.6600001
0.435 -2.5250001 2.71
0.435 -2.5250001 2.76
0.435 -2.5250001 2.8099999
0.435 -2.5250001 2.8599999
0.435 -2.5250001 2.9100001
0.435 -2.5250001 2.96
0.48500001 -2.5250001 0.0099999998
0.48500001 -2.5250001 0.059999999
0.48500001 -2.5250001 0.11
0.48500001 -2.5250001 0.16
0.48500001 -2.5250001 0.20999999
0.48500001 -2.5250001 0.25999999
0.48500001 -2.5250001 0.31
0.48500001 -2.5250001 0.36000001
0.48500001 -2.5250001 0.41
0.48500001 -2.5250001 0.46000001
0.48500001 -2.5250001 0.50999999
0.48500001 -2.5250001 0.56
0.48500001 -2.5250001 0.61000001
0.48500001 -2.5250001 0.66000003
0.48500001 -2.5250001 0.70999998
0.48500001 -2.5250001 0.75999999
0.48500001 -2.5250001 0.81
0.48500001 -2.5250001 0.86000001
0.48500001 -2.5250001 0.91000003
0.48500001 -2.5250001 0.95999998
0.48500001 -2.5250001 1.01
0.48500001 -2.5250001 1.0599999
0.48500001 -2.5250001 1.11
0.48500001 -2.5250001 1.16
0.48500001 -2.5250001 1.21
0.48500001 -2.5250001 1.26
0.48500001 -2.5250001 1.3099999
0.48500001 -2.5250001 1.36
0.48500001 -2.5250001 1.41
0.48500001 -2.5250001 1.46
0.48500001 -2.5250001 1.51
0.48500001 -2.5250001 1.5599999
0.48500001 -2.5250001 1.61
0.48500001 -2.5250001 1.66
0.48500001 -2.5250001 1.71
0.48500001 -2.5250001 1.76
0.48500001 -2.5250001 1.8099999
0.48500001 -2.5250001 1.86
0.48500001 -2.5250001 1.91
0.48500001 -2.5250001 1.96
0.48500001 -2.5250001 2.01
0.48500001 -2.5250001 2.0599999
0.48500001 -2.5250001 2.1099999
0.48500001 -2.5250001 2.1600001
0.48500001 -2.5250001 2.21
0.48500001 -2.5250001 2.26
0.48500001 -2.5250001 2.3099999
0.48500001 -2.5250001 2.3599999
0.48500001 -2.5250001 2.4100001
0.48500001 -2.5250001 2.46
0.48500001 -2.5250001 2.51
0.48500001 -2.5250001 2.5599999
0.48500001 -2.5250001 2.6099999
0.48500001 -2.5250001 2.6600001
0.48500001 -2.5250001 2.71
0.48500001 -2.5250001 2.76
0.48500001 -2.5250001 2.8099999
0.48500001 -2.5250001 2.8599999
0.48500001 -2.5250001 2.9100001
0.48500001 -2.5250001 2.96
0.53500003 -2.5250001 0.0099999998
0.53500003 -2.5250001 0.059999999
0.53500003 -2.5250001 0.11
0.53500003 -2.5250001 0.16
0.53500003 -2.5250001 0.20999999
0.53500003 -2.5250001 0.25999999
0.53500003 -2.5250001 0.31
0.53500003 -2.5250001 0.36000001
0.53500003 -2.5250001 0.41
0.53500003 -2.5250001 0.46000001
0.53500003 -2.5250001 0.50999999
0.53500003 -2.5250001 0.56
0.53500003 -2.5250001 0.61000001
0.53500003 -2.5250001 0.66000003
0.53500003 -2.5250001 0.70999998
0.53500003 -2.5250001 0.75999999
0.53500003 -2.5250001 0.81
0.53500003 -2.5250001 0.86000001
0.53500003 -2.5250001 0.91000003
0.53500003 -2.5250001 0.95999998
0.53500003 -2.5250001 1.01
0.53500003 -2.5250001 1.0599999
0.53500003 -2.5250001 1.11
0.53500003 -2.5250001 1.16
0.53500003 -2.5250001 1.21
0.53500003 -2.5250001 1.26
0.53500003 -2.5250001 1.3099999
0.53500003 -2.5250001 1.36
0.53500003 -2.5250001 1.41
0.53500003 -2.5250001 1.46
0.53500003 -2.5250001 1.51
0.53500003 -2.5250001 1.5599999
0.53500003 -2.5250001 1.61
0.53500003 -2.5250001 1.66
0.53500003 -2.5250001 1.71
0.53500003 -2.5250001 1.76
0.53500003 -2.5250001 1.8099999
0.53500003 -2.5250001 1.86
0.53500003 -2.5250001 1.91
0.53500003 -2.5250001 1.96
0.53500003 -2.5250001 2.01
0.53500003 -2.5250001 2.0599999
0.53500003 -2.5250001 2.1099999
0.53500003 -2.5250001 2.1600001
0.53500003 -2.5250001 2.21
0.53500003 -2.5250001 2.26
0.53500003 -2.5250001 2.3099999
0.53500003 -2.5250001 2.3599999
0.53500003 -2.5250001 2.4100001
0.53500003 -2.5250001 2.46
0.53500003 -2.5250001 2.51
0.53500003 -2.5250001 2.5599999
0.53500003 -2.5250001 2.6099999
0.53500003 -2.5250001 2.6600001
0.53500003 -2.5250001 2.71
0.53500003 -2.5250001 2.76
0.53500003 -2.5250001 2.8099999
0.53500003 -2.5250001 2.8599999
0.53500003 -2.5250001 2.9100001
0.53500003 -2.5250001 2.96
0.58499998 -2.5250001 0.0099999998
0.58499998 -2.5250001 0.059999999
0.58499998 -2.5250001 0.11
0.58499998 -2.5250001 0.16
0.58499998 -2.5250001 0.20999999
0.58499998 -2.5250001 0.25999999
0.58499998 -2.5250001 0.31
0.58499998 -2.5250001 0.36000001
0.58499998 -2.5250001 0.41
0.58499998 -2.5250001 0.46000001
0.58499998 -2.5250001 0.50999999
0.58499998 -2.5250001 0.56
0.58499998 -2.5250001 0.61000001
0.58499998 -2.5250001 0.66000003
0.58499998 -2.5250001 0.70999998
0.58499998 -2.5250001 0.75999999
0.58499998 -2.5250001 0.81
0.58499998 -2.5250001 0.86000001
0.58499998 -2.5250001 0.91000003
0.58499998 -2.5250001 0.95999998
0.58499998 -2.5250001 1.01
0.58499998 -2.5250001 1.0599999
0.58499998 -2.5250001 1.11
0.58499998 -2.5250001 1.16
0.58499998 -2.5250001 1.21
0.58499998 -2.5250001 1.26
0.58499998 -2.5250001 1.3099999
0.58499998 -2.5250001 1.36
0.58499998 -2.5250001 1.41
0.58499998 -2.5250001 1.46
0.58499998 -2.5250001 1.51
0.58499998 -2.5250001 1.5599999
0.58499998 -2.5250001 1.61
0.58499998 -2.5250001 1.66
0.58499998 -2.5250001 1.71
0.58499998 -2.5250001 1.76
0.58499998 -2.5250001 1.8099999
0.58499998 -2.5250001 1.86
0.58499998 -2.5250001 1.91
0.58499998 -2.5250001 1.96
0.58499998 -2.5250001 2.01
0.58499998 -2.5250001 2.0599999
0.58499998 -2.5250001 2.1099999
0.58499998 -2.5250001 2.1600001
0.58499998 -2.5250001 2.21
0.58499998 -2.5250001 2.26
0.58499998 -2.5250001 2.3099999
0.58499998 -2.5250001 2.3599999
0.58499998 -2.5250001 2.4100001
0.58499998 -2.5250001 2.46
0.58499998 -2.5250001 2.51
0.58499998 -2.5250001 2.5599999
0.58499998 -2.5250001 2.6099999
0.58499998 -2.5250001 2.6600001
0.58499998 -2.5250001 2.71
0.58499998 -2.5250001 2.76
0.58499998 -2.5250001 2.8099999
0.58499998 -2.5250001 2.8599999
0.58499998 -2.5250001 2.9100001
0.58499998 -2.5250001 2.96
0.63499999 -2.5250001 0.0099999998
0.63499999 -2.5250001 0.059999999
0.63499999 -2.5250001 0.11
0.63499999 -2.5250001 0.16
0.63499999 -2.5250001 0.20999999
0.63499999 -2.5250001 0.25999999
0.63499999 -2.5250001 0.31
0.63499999 -2.5250001 0.36000001
0.63499999 -2.5250001 0.41
0.63499999 -2.5250001 0.46000001
0.63499999 -2.5250001 0.50999999
0.63499999 -2.5250001 0.56
0.63499999 -2.5250001 0.61000001
0.63499999 -2.5250001 0.66000003
0.63499999 -2.5250001 0.70999998
0.63499999 -2.5250001 0.75999999
0.63499999 -2.5250001 0.81
0.63499999 -2.5250001 0.86000001
0.63499999 -2.5250001 0.91000003
0.63499999 -2.5250001 0.95999998
0.63499999 -2.5250001 1.01
0.63499999 -2.5250001 1.0599999
0.63499999 -2.5250001 1.11
0.63499999 -2.5250001 1.16
0.63499999 -2.5250001 1.21
0.63499999 -2.5250001 1.26
0.63499999 -2.5250001 1.3099999
0.63499999 -2.5250001 1.36
0.63499999 -2.5250001 1.41
0.63499999 -2.5250001 1.46
0.63499999 -2.5250001 1.51
0.63499999 -2.5250001 1.5599999
0.63499999 -2.5250001 1.61
0.63499999 -2.5250001 1.66
0.63499999 -2.5250001 1.71
0.63499999 -2.5250001 1.76
0.63499999 -2.5250001 1.8099999
0.63499999 -2.5250001 1.86
0.63499999 -2.5250001 1.91
0.63499999 -2.5250001 1.96
0.63499999 -2.5250001 2.01
0.63499999 -2.5250001 2.0599999
0.63499999 -2.5250001 2.1099999
0.63499999 -2.5250001 2.1600001
0.63499999 -2.5250001 2.21
0.63499999 -2.5250001 2.26
0.63499999 -2.5250001 2.3099999
0.63499999 -2.5250001 2.3599999
0.63499999 -2.5250001 2.4100001
0.63499999 -2.5250001 2.46
0.63499999 -2.5250001 2.51
0.63499999 -2.5250001 2.5599999
0.63499999 -2.5250001 2.6099999
0.63499999 -2.5250001 2.6600001
0.63499999 -2.5250001 2.71
0.63499999 -2.5250001 2.76
0.63499999 -2.5250001 2.8099999
0.63499999 -2.5250001 2.8599999
0.63499999 -2.5250001 2.9100001
0.63499999 -2.5250001 2.96
0.685 -2.5250001 0.0099999998
0.685 -2.5250001 0.059999999
0.685 -2.5250001 0.11
0.685 -2.5250001 0.16
0.685 -2.5250001 0.20999999
0.685 -2.5250001 0.25999999
0.685 -2.5250001 0.31
0.685 -2.5250001 0.36000001
0.685 -2.5250001 0.41
0.685 -2.5250001 0.46000001
0.685 -2.5250001 0.50999999
0.685 -2.5250001 0.56
0.685 -2.5250001 0.61000001
0.685 -2.5250001 0.66000003
0.685 -2.5250001 0.70999998
0.685 -2.5250001 0.75999999
0.685 -2.5250001 0.81
0.685 -2.5250001 0.86000001
0.685 -2.5250001 0.91000003
0.685 -2.5250001 0.95999998
0.685 -2.5250001 1.01
0.685 -2.5250001 1.0599999
0.685 -2.5250001 1.11
0.685 -2.5250001 1.16
0.685 -2.5250001 1.21
0.685 -2.5250001 1.26
0.685 -2.5250001 1.3099999
0.685 -2.5250001 1.36
0.685 -2.5250001 1.41
0.685 -2.5250001 1.46
0.685 -2.5250001 1.51
0.685 -2.5250001 1.5599999
0.685 -2.5250001 1.61
0.685 -2.5250001 1.66
0.685 -2.5250001 1.71
0.685 -2.5250001 1.76
0.685 -2.5250001 1.8099999
0.685 -2.5250001 1.86
0.685 -2.5250001 1.91
0.685 -2.5250001 1.96
0.685 -2.5250001 2.01
0.685 -2.5250001 2.0599999
0.685 -2.5250001 2.1099999
0.685 -2.5250001 2.1600001
0.685 -2.5250001 2.21
0.685 -2.5250001 2.26
0.685 -2.5250001 2.3099999
0.685 -2.5250001 2.3599999
0.685 -2.5250001 2.4100001
0.685 -2.5250001 2.46
0.685 -2.5250001 2.51
0.685 -2.5250001 2.5599999
0.685 -2.5250001 2.6099999
0.685 -2.5250001 2.6600001
0.685 -2.5250001 2.71
0.685 -2.5250001 2.76
0.685 -2.5250001 2.8099999
0.685 -2.5250001 2.8599999
0.685 -2.5250001 2.9100001
0.685 -2.5250001 2.96
0.73500001 -2.5250001 0.0099999998
0.73500001 -2.5250001 0.059999999
0.73500001 -2.5250001 0.11
0.73500001 -2.5250001 0.16
0.73500001 -2.5250001 0.20999999
0.73500001 -2.5250001 0.25999999
0.73500001 -2.5250001 0.31
0.73500001 -2.5250001 0.36000001
0.73500001 -2.5250001 0.41
0.73500001 -2.5250001 0.46000001
0.73500001 -2.5250001 0.50999999
0.73500001 -2.5250001 0.56
0.73500001 -2.5250001 0.61000001
0.73500001 -2.5250001 0.66000003
0.73500001 -2.5250001 0.70999998
0.73500001 -2.5250001 0.75999999
0.73500001 -2.5250001 0.81
0.73500001 -2.5250001 0.86000001
0.73500001 -2.5250001 0.91000003
0.73500001 -2.5250001 0.95999998
0.73500001 -2.5250001 1.01
0.73500001 -2.5250001 1.0599999
0.73500001 -2.5250001 1.11
0.73500001 -2.5250001 1.16
0.73500001 -2.5250001 1.21
0.73500001 -2.5250001 1.26
0.73500001 -2.5250001 1.3099999
0.73500001 -2.5250001 1.36
0.73500001 -2.5250001 1.41
0.73500001 -2.5250001 1.46
0.73500001 -2.5250001 1.51
0.73500001 -2.5250001 1.5599999
0.73500001 -2.5250001 1.61
0.73500001 -2.5250001 1.66
0.73500001 -2.5250001 1.71
0.73500001 -2.5250001 1.76
0.73500001 -2.5250001 1.8099999
0.73500001 -2.5250001 1.86
0.73500001 -2.5250001 1.91
0.73500001 -2.5250001 1.96
0.73500001 -2.5250001 2.01
0.73500001 -2.5250001 2.0599999
0.73500001 -2.5250001 2.1099999
0.73500001 -2.5250001 2.1600001
0.73500001 -2.5250001 2.21
0.73500001 -2.5250001 2.26
0.73500001 -2.5250001 2.3099999
0.73500001 -2.5250001 2.3599999
0.73500001 -2.5250001 2.4100001
0.73500001 -2.5250001 2.46
0.73500001 -2.5250001 2.51
0.73500001 -2.5250001 2.5599999
0.73500001 -2.5250001 2.6099999
0.73500001 -2.5250001 2.6600001
0.73500001 -2.5250001 2.71
0.73500001 -2.5250001 2.76
0.73500001 -2.5250001 2.8099999
0.73500001 -2.5250001 2.8599999
0.73500001 -2.5250001 2.9100001
0.73500001 -2.5250001 2.96
0.78500003 -2.5250001 0.0099999998
0.78500003 -2.5250001 0.059999999
0.78500003 -2.5250001 0.11
0.78500003 -2.5250001 0.16
0.78500003 -2.5250001 0.20999999
0.78500003 -2.5250001 0.25999999
0.78500003 -2.5250001 0.31
0.78500003 -2.5250001 0.36000001
0.78500003 -2.5250001 0.41
0.78500003 -2.5250001 0.46000001
0.78500003 -2.5250001 0.50999999
0.78500003 -2.5250001 0.56
0.78500003 -2.5250001 0.61000001
0.78500003 -2.5250001 0.66000003
0.78500003 -2.5250001 0.70999998
0.78500003 -2.5250001 0.75999999
0.78500003 -2.5250001 0.81
0.78500003 -2.5250001 0.86000001
0.78500003 -2.5250001 0.91000003
0.78500003 -2.5250001 0.95999998
0.78500003 -2.5250001 1.01
0.78500003 -2.5250001 1.0599999
0.78500003 -2.5250001 1.11
0.78500003 -2.5250001 1.16
0.78500003 -2.5250001 1.21
0.78500003 -2.5250001 1.26
0.78500003 -2.5250001 1.3099999
0.78500003 -2.5250001 1.36
0.78500003 -2.5250001 1.41
0.78500003 -2.5250001 1.46
0.78500003 -2.5250001 1.51
0.78500003 -2.5250001 1.5599999
0.78500003 -2.5250001 1.61
0.78500003 -2.5250001 1.66
0.78500003 -2.5250001 1.71
0.78500003 -2.5250001 1.76
0.78500003 -2.5250001 1.8099999
0.78500003 -2.5250001 1.86
0.78500003 -2.5250001 1.91
0.78500003 -2.5250001 1.96
0.78500003 -2.5250001 2.01
0.78500003 -2.5250001 2.0599999
0.78500003 -2.5250001 2.1099999
0.78500003 -2.5250001 2.1600001
0.78500003 -2.5250001 2.21
0.78500003 -2.5250001 2.26
0.78500003 -2.5250001 2.3099999
0.78500003 -2.5250001 2.3599999
0.78500003 -2.5250001 2.4100001
0.78500003 -2.5250001 2.46
0.78500003 -2.5250001 2.51
0.78500003 -2.5250001 2.5599999
0.78500003 -2.5250001 2.6099999
0.78500003 -2.5250001 2.6600001
0.78500003 -2.5250001 2.71
0.78500003 -2.5250001 2.76
0.78500003 -2.5250001 2.8099999
0.78500003 -2.5250001 2.8599999
0.78500003 -2.5250001 2.9100001
0.78500003 -2.5250001 2.96
0.83499998 -2.5250001 0.0099999998
0.83499998 -2.5250001 0.059999999
0.83499998 -2.5250001 0.11
0.83499998 -2.5250001 0.16
0.83499998 -2.5250001 0.20999999
0.83499998 -2.5250001 0.25999999
0.83499998 -2.5250001 0.31
0.83499998 -2.5250001 0.36000001
0.83499998 -2.5250001 0.41
0.83499998 -2.5250001 0.46000001
0.83499998 -2.5250001 0.50999999
0.83499998 -2.5250001 0.56
0.83499998 -2.5250001 0.61000001
0.83499998 -2.5250001 0.66000003
0.83499998 -2.5250001 0.70999998
0.83499998 -2.5250001 0.75999999
0.83499998 -2.5250001 0.81
0.83499998 -2.5250001 0.86000001
0.83499998 -2.5250001 0.91000003
0.83499998 -2.5250001 0.95999998
0.83499998 -2.5250001 1.01
0.83499998 -2.5250001 1.0599999
0.83499998 -2.5250001 1.11
0.83499998 -2.5250001 1.16
0.83499998 -2.5250001 1.21
0.83499998 -2.5250001 1.26
0.83499998 -2.5250001 1.3099999
0.83499998 -2.5250001 1.36
0.83499998 -2.5250001 1.41
0.83499998 -2.5250001 1.46
0.83499998 -2.5250001 1.51
0.83499998 -2.5250001 1.5599999
0.83499998 -2.5250001 1.61
0.83499998 -2.5250001 1.66
0.83499998 -2.5250001 1.71
0.83499998 -2.5250001 1.76
0.83499998 -2.5250001 1.8099999
0.83499998 -2.5250001 1.86
0.83499998 -2.5250001 1.91
0.83499998 -2.5250001 1.96
0.83499998 -2.5250001 2.01
0.83499998 -2.5250001 2.0599999
0.83499998 -2.5250001 2.1099999
0.83499998 -2.5250001 2.1600001
0.83499998 -2.5250001 2.21
0.83499998 -2.5250001 2.26
0.83499998 -2.5250001 2.3099999
0.83499998 -2.5250001 2.3599999
0.83499998 -2.5250001 2.4100001
0.83499998 -2.5250001 2.46
0.83499998 -2.5250001 2.51
0.83499998 -2.5250001 2.5599999
0.83499998 -2.5250001 2.6099999
0.83499998 -2.5250001 2.6600001
0.83499998 -2.5250001 2.71
0.83499998 -2.5250001 2.76
0.83499998 -2.5250001 2.8099999
0.83499998 -2.5250001 2.8599999
0.83499998 -2.5250001 2.9100001
0.83499998 -2.5250001 2.96
0.88499999 -2.5250001 0.0099999998
0.88499999 -2.5250001 0.059999999
0.88499999 -2.5250001 0.11
0.88499999 -2.5250001 0.16
0.88499999 -2.5250001 0.20999999
0.88499999 -2.5250001 0.25999999
0.88499999 -2.5250001 0.31
0.88499999 -2.5250001 0.36000001
0.88499999 -2.5250001 0.41
0.88499999 -2.5250001 0.46000001
0.88499999 -2.5250001 0.50999999
0.88499999 -2.5250001 0.56
0.88499999 -2.5250001 0.61000001
0.88499999 -2.5250001 0.66000003
0.88499999 -2.5250001 0.70999998
0.88499999 -2.5250001 0.75999999
0.88499999 -2.5250001 0.81
0.88499999 -2.5250001 0.86000001
0.88499999 -2.5250001 0.91000003
0.88499999 -2.5250001 0.95999998
0.88499999 -2.5250001 1.01
0.88499999 -2.5250001 1.0599999
0.88499999 -2.5250001 1.11
0.88499999 -2.5250001 1.16
0.88499999 -2.5250001 1.21
0.88499999 -2.5250001 1.26
0.88499999 -2.5250001 1.3099999
0.88499999 -2.5250001 1.36
0.88499999 -2.5250001 1.41
0.88499999 -2.5250001 1.46
0.88499999 -2.5250001 1.51
0.88499999 -2.5250001 1.5599999
0.88499999 -2.5250001 1.61
0.88499999 -2.5250001 1.66
0.88499999 -2.5250001 1.71
0.88499999 -2.5250001 1.76
0.88499999 -2.5250001 1.8099999
0.88499999 -2.5250001 1.86
0.88499999 -2.5250001 1.91
0.88499999 -2.5250001 1.96
0.88499999 -2.5250001 2.01
0.88499999 -2.5250001 2.0599999
0.88499999 -2.5250001 2.1099999
0.88499999 -2.5250001 2.1600001
0.88499999 -2.5250001 2.21
0.88499999 -2.5250001 2.26
0.88499999 -2.5250001 2.3099999
0.88499999 -2.5250001 2.3599999
0.88499999 -2.5250001 2.4100001
0.88499999 -2.5250001 2.46
0.88499999 -2.5250001 2.51
0.88499999 -2.5250001 2.5599999
0.88499999 -2.5250001 2.6099999
0.88499999 -2.5250001 2.6600001
0.88499999 -2.5250001 2.71
0.88499999 -2.5250001 2.76
0.88499999 -2.5250001 2.8099999
0.88499999 -2.5250001 2.8599999
0.88499999 -2.5250001 2.9100001
0.88499999 -2.5250001 2.96
0.935 -2.5250001 0.0099999998
0.935 -2.5250001 0.059999999
0.935 -2.5250001 0.11
0.935 -2.5250001 0.16
0.935 -2.5250001 0.20999999
0.935 -2.5250001 0.25999999
0.935 -2.5250001 0.31
0.935 -2.5250001 0.36000001
0.935 -2.5250001 0.41
0.935 -2.5250001 0.46000001
0.935 -2.5250001 0.50999999
0.935 -2.5250001 0.56
0.935 -2.5250001 0.61000001
0.935 -2.5250001 0.66000003
0.935 -2.5250001 0.70999998
0.935 -2.5250001 0.75999999
0.935 -2.5250001 0.81
0.935 -2.5250001 0.86000001
0.935 -2.5250001 0.91000003
0.935 -2.5250001 0.95999998
0.935 -2.5250001 1.01
0.935 -2.5250001 1.0599999
0.935 -2.5250001 1.11
0.935 -2.5250001 1.16
0.935 -2.5250001 1.21
0.935 -2.5250001 1.26
0.935 -2.5250001 1.3099999
0.935 -2.5250001 1.36
0.935 -2.5250001 1.41
0.935 -2.5250001 1.46
0.935 -2.5250001 1.51
0.935 -2.5250001 1.5599999
0.935 -2.5250001 1.61
0.935 -2.5250001 1.66
0.935 -2.5250001 1.71
0.935 -2.5250001 1.76
0.935 -2.5250001 1.8099999
0.935 -2.5250001 1.86
0.935 -2.5250001 1.91
0.935 -2.5250001 1.96
0.935 -2.5250001 2.01
0.935 -2.5250001 2.0599999
0.935 -2.5250001 2.1099999
0.935 -2.5250001 2.1600001
0.935 -2.5250001 2.21
0.935 -2.5250001 2.26
0.935 -2.5250001 2.3099999
0.935 -2.5250001 2.3599999
0.935 -2.5250001 2.4100001
0.935 -2.5250001 2.46
0.935 -2.5250001 2.51
0.935 -2.5250001 2.5599999
0.935 -2.5250001 2.6099999
0.935 -2.5250001 2.6600001
0.935 -2.5250001 2.71
0.935 -2.5250001 2.76
0.935 -2.5250001 2.8099999
0.935 -2.5250001 2.8599999
0.935 -2.5250001 2.9100001
0.935 -2.5250001 2.96
0.98500001 -2.5250001 0.0099999998
0.98500001 -2.5250001 0.059999999
0.98500001 -2.5250001 0.11
0.98500001 -2.5250001 0.16
0.98500001 -2.5250001 0.20999999
0.98500001 -2.5250001 0.25999999
0.98500001 -2.5250001 0.31
0.98500001 -2.5250001 0.36000001
0.98500001 -2.5250001 0.41
0.98500001 -2.5250001 0.46000001
0.98500001 -2.5250001 0.50999999
0.98500001 -2.5250001 0.56
0.98500001 -2.5250001 0.61000001
0.98500001 -2.5250001 0.66000003
0.98500001 -2.5250001 0.70999998
0.98500001 -2.5250001 0.75999999
0.98500001 -2.5250001 0.81
0.98500001 -2.5250001 0.86000001
0.98500001 -2.5250001 0.91000003
0.98500001 -2.5250001 0.95999998
0.98500001 -2.5250001 1.01
0.98500001 -2.5250001 1.0599999
0.98500001 -2.5250001 1.11
0.98500001 -2.5250001 1.16
0.98500001 -2.5250001 1.21
0.98500001 -2.5250001 1.26
0.98500001 -2.5250001 1.3099999
0.98500001 -2.5250001 1.36
0.98500001 -2.5250001 1.41
0.98500001 -2.5250001 1.46
0.98500001 -2.5250001 1.51
0.98500001 -2.5250001 1.5599999
0.98500001 -2.5250001 1.61
0.98500001 -2.5250001 1.66
0.98500001 -2.5250001 1.71
0.98500001 -2.5250001 1.76
0.98500001 -2.5250001 1.8099999
0.98500001 -2.5250001 1.86
0.98500001 -2.5250001 1.91
0.98500001 -2.5250001 1.96
0.98500001 -2.5250001 2.01
0.98500001 -2.5250001 2.0599999
0.98500001 -2.5250001 2.1099999
0.98500001 -2.5250001 2.1600001
0.98500001 -2.5250001 2.21
0.98500001 -2.5250001 2.26
0.98500001 -2.5250001 2.3099999
0.98500001 -2.5250001 2.3599999
0.98500001 -2.5250001 2.4100001
0.98500001 -2.5250001 2.46
0.98500001 -2.5250001 2.51
0.98500001 -2.5250001 2.5599999
0.98500001 -2.5250001 2.6099999
0.98500001 -2.5250001 2.6600001
0.98500001 -2.5250001 2.71
0.98500001 -2.5250001 2.76
0.98500001 -2.5250001 2.8099999
0.98500001 -2.5250001 2.8599999
0.98500001 -2.5250001 2.9100001
0.98500001 -2.5250001 2.96
1.035 -2.5250001 0.0099999998
1.035 -2.5250001 0.059999999
1.035 -2.5250001 0.11
1.035 -2.5250001 0.16
1.035 -2.5250001 0.20999999
1.035 -2.5250001 0.25999999
1.035 -2.5250001 0.31
1.035 -2.5250001 0.36000001
1.035 -2.5250001 0.41
1.035 -2.5250001 0.46000001
1.035 -2.5250001 0.50999999
1.035 -2.5250001 0.56
1.035 -2.5250001 0.61000001
1.035 -2.5250001 0.66000003
1.035 -2.5250001 0.70999998
1.035 -2.5250001 0.75999999
1.035 -2.5250001 0.81
1.035 -2.5250001 0.86000001
1.035 -2.5250001 0.91000003
1.035 -2.5250001 0.95999998
1.035 -2.5250001 1.01
1.035 -2.5250001 1.0599999
1.035 -2.5250001 1.11
1.035 -2.5250001 1.16
1.035 -2.5250001 1.21
1.035 -2.5250001 1.26
1.035 -2.5250001 1.3099999
1.035 -2.5250001 1.36
1.035 -2.5250001 1.41
1.035 -2.5250001 1.46
1.035 -2.5250001 1.51
1.035 -2.5250001 1.5599999
1.035 -2.5250001 1.61
1.035 -2.5250001 1.66
1.035 -2.5250001 1.71
1.035 -2.5250001 1.76
1.035 -2.5250001 1.8099999
1.035 -2.5250001 1.86
1.035 -2.5250001 1.91
1.035 -2.5250001 1.96
1.035 -2.5250001 2.01
1.035 -2.5250001 2.0599999
1.035 -2.5250001 2.1099999
1.035 -2.5250001 2.1600001
1.035 -2.5250001 2.21
1.035 -2.5250001 2.26
1.035 -2.5250001 2.3099999
1.035 -2.5250001 2.3599999
1.035 -2.5250001 2.4100001
1.035 -2.5250001 2.46
1.035 -2.5250001 2.51
1.035 -2.5250001 2.5599999
1.035 -2.5250001 2.6099999
1.035 -2.5250001 2.6600001
1.035 -2.5250001 2.71
1.035 -2.5250001 2.76
1.035 -2.5250001 2.8099999
1.035 -2.5250001 2.8599999
1.035 -2.5250001 2.9100001
1.035 -2.5250001 2.96
1.085 -2.5250001 0.0099999998
1.085 -2.5250001 0.059999999
1.085 -2.5250001 0.11
1.085 -2.5250001 0.16
1.085 -2.5250001 0.20999999
1.085 -2.5250001 0.25999999
1.085 -2.5250001 0.31
