# .PCD v0.7 - Point Cloud Data file format
VERSION 0.7
FIELDS x y z
SIZE 4 4 4
TYPE F F F
COUNT 1 1 1
WIDTH 1812
HEIGHT 1
VIEWPOINT 0 0 0 1 0 0 0
POINTS 1812
DATA ascii
0.0099999998 3.1099999 5.46
0.0099999998 3.1099999 5.5599999
0.0099999998 3.1099999 5.6599998
0.0099999998 3.1099999 5.7600002
0.0099999998 3.1099999 5.8600001
0.0099999998 3.1099999 5.96
0.0099999998 3.1099999 6.0599999
0.0099999998 3.1099999 6.1599998
0.0099999998 3.1099999 6.2600002
0.0099999998 3.1099999 6.3600001
0.0099999998 3.1099999 6.46
0.0099999998 3.1099999 6.5599999
0.0099999998 3.1099999 6.6599998
0.0099999998 3.1099999 6.7600002
0.0099999998 3.1099999 6.8600001
0.0099999998 3.1099999 6.96
0.11 -0.88999999 -0.94
0.11 -0.88999999 -0.83999997
0.11 -0.88999999 -0.74000001
0.11 -0.88999999 -0.63999999
0.11 -0.88999999 -0.54000002
0.11 -0.88999999 -0.44
0.11 -0.88999999 -0.34
0.11 -0.88999999 -0.23999999
0.11 -0.88999999 -0.14
0.11 -0.88999999 -0.039999999
0.11 -0.88999999 0.059999999
0.11 -0.88999999 0.16
0.11 -0.88999999 0.25999999
0.11 -0.88999999 0.36000001
0.11 -0.88999999 0.46000001
0.11 -0.88999999 0.56
0.11 -0.88999999 0.66000003
0.11 -0.88999999 0.75999999
0.11 -0.88999999 0.86000001
0.11 -0.88999999 0.95999998
0.11 -0.88999999 1.0599999
0.11 -0.88999999 1.16
0.11 -0.88999999 1.26
0.11 -0.88999999 1.36
0.11 -0.88999999 1.46
0.11 -0.88999999 1.5599999
0.11 -0.88999999 1.66
0.11 -0.88999999 1.76
0.11 -0.88999999 1.86
0.11 -0.88999999 1.96
0.11 -0.88999999 2.0599999
0.11 -0.88999999 2.1600001
0.11 -0.88999999 2.26
0.11 -0.88999999 2.3599999
0.11 -0.88999999 2.46
0.11 -0.88999999 2.5599999
0.11 -0.88999999 2.6600001
0.11 -0.88999999 2.76
0.11 -0.88999999 2.8599999
0.11 -0.88999999 2.96
0.11 -0.88999999 3.0599999
0.11 -0.88999999 3.1600001
0.11 -0.88999999 3.26
0.11 -0.88999999 3.3599999
0.11 -0.88999999 3.46
0.11 -0.88999999 3.5599999
0.11 -0.88999999 3.6600001
0.11 -0.88999999 3.76
0.11 -0.88999999 3.8599999
0.11 -0.88999999 3.96
0.11 -0.88999999 4.0599999
0.11 -0.88999999 4.1599998
0.11 -0.88999999 4.2600002
0.11 -0.88999999 4.3600001
0.11 -0.88999999 4.46
0.11 -0.88999999 4.5599999
0.11 -0.88999999 4.6599998
0.11 -0.88999999 4.7600002
0.11 -0.88999999 4.8600001
0.11 -0.88999999 4.96
0.11 -0.88999999 5.0599999
0.11 -0.88999999 5.1599998
0.11 -0.88999999 5.2600002
0.11 -0.88999999 5.3600001
0.11 -0.88999999 5.46
0.11 -0.88999999 5.5599999
0.11 -0.88999999 5.6599998
0.11 -0.88999999 5.7600002
0.11 -0.88999999 5.8600001
0.11 -0.88999999 5.96
0.11 -0.88999999 6.0599999
0.11 -0.88999999 6.1599998
0.11 -0.88999999 6.2600002
0.11 -0.88999999 6.3600001
0.11 -0.88999999 6.46
0.11 -0.88999999 6.5599999
0.11 -0.88999999 6.6599998
0.11 -0.88999999 6.7600002
0.11 -0.88999999 6.8600001
0.11 -0.88999999 6.96
0.11 -0.79000002 -0.94
0.11 -0.79000002 -0.83999997
0.11 -0.79000002 -0.74000001
0.11 -0.79000002 -0.63999999
0.11 -0.79000002 -0.54000002
0.11 -0.79000002 -0.44
0.11 -0.79000002 -0.34
0.11 -0.79000002 -0.23999999
0.11 -0.79000002 -0.14
0.11 -0.79000002 -0.039999999
0.11 -0.79000002 0.059999999
0.11 -0.79000002 0.16
0.11 -0.79000002 0.25999999
0.11 -0.79000002 0.36000001
0.11 -0.79000002 0.46000001
0.11 -0.79000002 0.56
0.11 -0.79000002 0.66000003
0.11 -0.79000002 0.75999999
0.11 -0.79000002 0.86000001
0.11 -0.79000002 0.95999998
0.11 -0.79000002 1.0599999
0.11 -0.79000002 1.16
0.11 -0.79000002 1.26
0.11 -0.79000002 1.36
0.11 -0.79000002 1.46
0.11 -0.79000002 1.5599999
0.11 -0.79000002 1.66
0.11 -0.79000002 1.76
0.11 -0.79000002 1.86
0.11 -0.79000002 1.96
0.11 -0.79000002 2.0599999
0.11 -0.79000002 2.1600001
0.11 -0.79000002 2.26
0.11 -0.79000002 2.3599999
0.11 -0.79000002 2.46
0.11 -0.79000002 2.5599999
0.11 -0.79000002 2.6600001
0.11 -0.79000002 2.76
0.11 -0.79000002 2.8599999
0.11 -0.79000002 2.96
0.11 -0.79000002 3.0599999
0.11 -0.79000002 3.1600001
0.11 -0.79000002 3.26
0.11 -0.79000002 3.3599999
0.11 -0.79000002 3.46
0.11 -0.79000002 3.5599999
0.11 -0.79000002 3.6600001
0.11 -0.79000002 3.76
0.11 -0.79000002 3.8599999
0.11 -0.79000002 3.96
0.11 -0.79000002 4.0599999
0.11 -0.79000002 4.1599998
0.11 -0.79000002 4.2600002
0.11 -0.79000002 4.3600001
0.11 -0.79000002 4.46
0.11 -0.79000002 4.5599999
0.11 -0.79000002 4.6599998
0.11 -0.79000002 4.7600002
0.11 -0.79000002 4.8600001
0.11 -0.79000002 4.96
0.11 -0.79000002 5.0599999
0.11 -0.79000002 5.1599998
0.11 -0.79000002 5.2600002
0.11 -0.79000002 5.3600001
0.11 -0.79000002 5.46
0.11 -0.79000002 5.5599999
0.11 -0.79000002 5.6599998
0.11 -0.79000002 5.7600002
0.11 -0.79000002 5.8600001
0.11 -0.79000002 5.96
0.11 -0.79000002 6.0599999
0.11 -0.79000002 6.1599998
0.11 -0.79000002 6.2600002
0.11 -0.79000002 6.3600001
0.11 -0.79000002 6.46
0.11 -0.79000002 6.5599999
0.11 -0.79000002 6.6599998
0.11 -0.79000002 6.7600002
0.11 -0.79000002 6.8600001
0.11 -0.79000002 6.96
0.20999999 -0.88999999 -0.94
0.20999999 -0.88999999 -0.83999997
0.20999999 -0.88999999 -0.74000001
0.20999999 -0.88999999 -0.63999999
0.20999999 -0.88999999 -0.54000002
0.20999999 -0.88999999 -0.44
0.20999999 -0.88999999 -0.34
0.20999999 -0.88999999 -0.23999999
0.20999999 -0.88999999 -0.14
0.20999999 -0.88999999 -0.039999999
0.20999999 -0.88999999 0.059999999
0.20999999 -0.88999999 0.16
0.20999999 -0.88999999 0.25999999
0.20999999 -0.88999999 0.36000001
0.20999999 -0.88999999 0.46000001
0.20999999 -0.88999999 0.56
0.20999999 -0.88999999 0.66000003
0.20999999 -0.88999999 0.75999999
0.20999999 -0.88999999 0.86000001
0.20999999 -0.88999999 0.95999998
0.20999999 -0.88999999 1.0599999
0.20999999 -0.88999999 1.16
0.20999999 -0.88999999 1.26
0.20999999 -0.88999999 1.36
0.20999999 -0.88999999 1.46
0.20999999 -0.88999999 1.5599999
0.20999999 -0.88999999 1.66
0.20999999 -0.88999999 1.76
0.20999999 -0.88999999 1.86
0.20999999 -0.88999999 1.96
0.20999999 -0.88999999 2.0599999
0.20999999 -0.88999999 2.1600001
0.20999999 -0.88999999 2.26
0.20999999 -0.88999999 2.3599999
0.20999999 -0.88999999 2.46
0.20999999 -0.88999999 2.5599999
0.20999999 -0.88999999 2.6600001
0.20999999 -0.88999999 2.76
0.20999999 -0.88999999 2.8599999
0.20999999 -0.88999999 2.96
0.20999999 -0.88999999 3.0599999
0.20999999 -0.88999999 3.1600001
0.20999999 -0.88999999 3.26
0.20999999 -0.88999999 3.3599999
0.20999999 -0.88999999 3.46
0.20999999 -0.88999999 3.5599999
0.20999999 -0.88999999 3.6600001
0.20999999 -0.88999999 3.76
0.20999999 -0.88999999 3.8599999
0.20999999 -0.88999999 3.96
0.20999999 -0.88999999 4.0599999
0.20999999 -0.88999999 4.1599998
0.20999999 -0.88999999 4.2600002
0.20999999 -0.88999999 4.3600001
0.20999999 -0.88999999 4.46
0.20999999 -0.88999999 4.5599999
0.20999999 -0.88999999 4.6599998
0.20999999 -0.88999999 4.7600002
0.20999999 -0.88999999 4.8600001
0.20999999 -0.88999999 4.96
0.20999999 -0.88999999 5.0599999
0.20999999 -0.88999999 5.1599998
0.20999999 -0.88999999 5.2600002
0.20999999 -0.88999999 5.3600001
0.20999999 -0.88999999 5.46
0.20999999 -0.88999999 5.5599999
0.20999999 -0.88999999 5.6599998
0.20999999 -0.88999999 5.7600002
0.20999999 -0.88999999 5.8600001
0.20999999 -0.88999999 5.96
0.20999999 -0.88999999 6.0599999
0.20999999 -0.88999999 6.1599998
0.20999999 -0.88999999 6.2600002
0.20999999 -0.88999999 6.3600001
0.20999999 -0.88999999 6.46
0.20999999 -0.88999999 6.5599999
0.20999999 -0.88999999 6.6599998
0.20999999 -0.88999999 6.7600002
0.20999999 -0.88999999 6.8600001
0.20999999 -0.88999999 6.96
0.20999999 -0.79000002 -0.94
0.20999999 -0.79000002 -0.83999997
0.20999999 -0.79000002 -0.74000001
0.20999999 -0.79000002 -0.63999999
0.20999999 -0.79000002 -0.54000002
0.20999999 -0.79000002 -0.44
0.20999999 -0.79000002 -0.34
0.20999999 -0.79000002 -0.23999999
0.20999999 -0.79000002 -0.14
0.20999999 -0.79000002 -0.039999999
0.20999999 -0.79000002 0.059999999
0.20999999 -0.79000002 0.16
0.20999999 -0.79000002 0.25999999
0.20999999 -0.79000002 0.36000001
0.20999999 -0.79000002 0.46000001
0.20999999 -0.79000002 0.56
0.20999999 -0.79000002 0.66000003
0.20999999 -0.79000002 0.75999999
0.20999999 -0.79000002 0.86000001
0.20999999 -0.79000002 0.95999998
0.20999999 -0.79000002 1.0599999
0.20999999 -0.79000002 1.16
0.20999999 -0.79000002 1.26
0.20999999 -0.79000002 1.36
0.20999999 -0.79000002 1.46
0.20999999 -0.79000002 1.5599999
0.20999999 -0.79000002 1.66
0.20999999 -0.79000002 1.76
0.20999999 -0.79000002 1.86
0.20999999 -0.79000002 1.96
0.20999999 -0.79000002 2.0599999
0.20999999 -0.79000002 2.1600001
0.20999999 -0.79000002 2.26
0.20999999 -0.79000002 2.3599999
0.20999999 -0.79000002 2.46
0.20999999 -0.79000002 2.5599999
0.20999999 -0.79000002 2.6600001
0.20999999 -0.79000002 2.76
0.20999999 -0.79000002 2.8599999
0.20999999 -0.79000002 2.96
0.20999999 -0.79000002 3.0599999
0.20999999 -0.79000002 3.1600001
0.20999999 -0.79000002 3.26
0.20999999 -0.79000002 3.3599999
0.20999999 -0.79000002 3.46
0.20999999 -0.79000002 3.5599999
0.20999999 -0.79000002 3.6600001
0.20999999 -0.79000002 3.76
0.20999999 -0.79000002 3.8599999
0.20999999 -0.79000002 3.96
0.20999999 -0.79000002 4.0599999
0.20999999 -0.79000002 4.1599998
0.20999999 -0.79000002 4.2600002
0.20999999 -0.79000002 4.3600001
0.20999999 -0.79000002 4.46
0.20999999 -0.79000002 4.5599999
0.20999999 -0.79000002 4.6599998
0.20999999 -0.79000002 4.7600002
0.20999999 -0.79000002 4.8600001
0.20999999 -0.79000002 4.96
0.20999999 -0.79000002 5.0599999
0.20999999 -0.79000002 5.1599998
0.20999999 -0.79000002 5.2600002
0.20999999 -0.79000002 5.3600001
0.20999999 -0.79000002 5.46
0.20999999 -0.79000002 5.5599999
0.20999999 -0.79000002 5.6599998
0.20999999 -0.79000002 5.7600002
0.20999999 -0.79000002 5.8600001
0.20999999 -0.79000002 5.96
0.20999999 -0.79000002 6.0599999
0.20999999 -0.79000002 6.1599998
0.20999999 -0.79000002 6.2600002
0.20999999 -0.79000002 6.3600001
0.20999999 -0.79000002 6.46
0.20999999 -0.79000002 6.5599999
0.20999999 -0.79000002 6.6599998
0.20999999 -0.79000002 6.7600002
0.20999999 -0.79000002 6.8600001
0.20999999 -0.79000002 6.96
3.9100001 -3.6900001 -0.94
3.9100001 -3.6900001 -0.83999997
3.9100001 -3.6900001 -0.74000001
3.9100001 -3.6900001 -0.63999999
3.9100001 -3.6900001 -0.54000002
3.9100001 -3.6900001 -0.44
3.9100001 -3.6900001 -0.34
3.9100001 -3.6900001 -0.23999999
3.9100001 -3.6900001 -0.14
3.9100001 -3.6900001 -0.039999999
3.9100001 -3.6900001 0.059999999
3.9100001 -3.6900001 0.16
3.9100001 -3.6900001 0.25999999
3.9100001 -3.6900001 0.36000001
3.9100001 -3.6900001 0.46000001
3.9100001 -3.6900001 0.56
3.9100001 -3.6900001 0.66000003
3.9100001 -3.6900001 0.75999999
3.9100001 -3.6900001 0.86000001
3.9100001 -3.6900001 0.95999998
3.9100001 -3.6900001 1.0599999
3.9100001 -3.6900001 1.16
3.9100001 -3.6900001 1.26
3.9100001 -3.6900001 1.36
3.9100001 -3.6900001 1.46
3.9100001 -3.6900001 1.5599999
3.9100001 -3.6900001 1.66
3.9100001 -3.6900001 1.76
3.9100001 -3.6900001 1.86
3.9100001 -3.6900001 1.96
3.9100001 -3.6900001 2.0599999
3.9100001 -3.6900001 2.1600001
3.9100001 -3.6900001 2.26
3.9100001 -3.6900001 2.3599999
3.9100001 -3.6900001 2.46
3.9100001 -3.6900001 2.5599999
3.9100001 -3.6900001 2.6600001
3.9100001 -3.6900001 2.76
3.9100001 -3.6900001 2.8599999
3.9100001 -3.6900001 2.96
3.9100001 -3.6900001 3.0599999
3.9100001 -3.6900001 3.1600001
3.9100001 -3.6900001 3.26
3.9100001 -3.6900001 3.3599999
3.9100001 -3.6900001 3.46
3.9100001 -3.6900001 3.5599999
3.9100001 -3.6900001 3.6600001
3.9100001 -3.6900001 3.76
3.9100001 -3.6900001 3.8599999
3.9100001 -3.6900001 3.96
3.9100001 -3.6900001 4.0599999
3.9100001 -3.6900001 4.1599998
3.9100001 -3.6900001 4.2600002
3.9100001 -3.6900001 4.3600001
3.9100001 -3.6900001 4.46
3.9100001 -3.6900001 4.5599999
3.9100001 -3.6900001 4.6599998
3.9100001 -3.6900001 4.7600002
3.9100001 -3.6900001 4.8600001
3.9100001 -3.6900001 4.96
3.9100001 -3.6900001 5.0599999
3.9100001 -3.6900001 5.1599998
3.9100001 -3.6900001 5.2600002
3.9100001 -3.6900001 5.3600001
3.9100001 -3.6900001 5.46
3.9100001 -3.6900001 5.5599999
3.9100001 -3.6900001 5.6599998
3.9100001 -3.6900001 5.7600002
3.9100001 -3.6900001 5.8600001
3.9100001 -3.6900001 5.96
3.9100001 -3.6900001 6.0599999
3.9100001 -3.6900001 6.1599998
3.9100001 -3.6900001 6.2600002
3.9100001 -3.6900001 6.3600001
3.9100001 -3.6900001 6.46
3.9100001 -3.6900001 6.5599999
3.9100001 -3.6900001 6.6599998
3.9100001 -3.6900001 6.7600002
3.9100001 -3.6900001 6.8600001
3.9100001 -3.6900001 6.96
-3.49 1.11 -0.94
-3.49 1.11 -0.83999997
-3.49 1.11 -0.74000001
-3.49 1.11 -0.63999999
-3.49 1.11 -0.54000002
-3.49 1.11 -0.44
-3.49 1.11 -0.34
-3.49 1.11 -0.23999999
-3.49 1.11 -0.14
-3.49 1.11 -0.039999999
-3.49 1.11 0.059999999
-3.49 1.11 0.16
-3.49 1.11 0.25999999
-3.49 1.11 0.36000001
-3.49 1.11 0.46000001
-3.49 1.11 0.56
-3.49 1.11 0.66000003
-3.49 1.11 0.75999999
-3.49 1.11 0.86000001
-3.49 1.11 0.95999998
-3.49 1.11 1.0599999
-3.49 1.11 1.16
-3.49 1.11 1.26
-3.49 1.11 1.36
-3.49 1.11 1.46
-3.49 1.11 1.5599999
-3.49 1.11 1.66
-3.49 1.11 1.76
-3.49 1.11 1.86
-3.49 1.11 1.96
-3.49 1.11 2.0599999
-3.49 1.11 2.1600001
-3.49 1.11 2.26
-3.49 1.11 2.3599999
-3.49 1.11 2.46
-3.49 1.11 2.5599999
-3.49 1.11 2.6600001
-3.49 1.11 2.76
-3.49 1.11 2.8599999
-3.49 1.11 2.96
-3.49 1.11 3.0599999
-3.49 1.11 3.1600001
-3.49 1.11 3.26
-3.49 1.11 3.3599999
-3.49 1.11 3.46
-3.49 1.11 3.5599999
-3.49 1.11 3.6600001
-3.49 1.11 3.76
-3.49 1.11 3.8599999
-3.49 1.11 3.96
-3.49 1.11 4.0599999
-3.49 1.11 4.1599998
-3.49 1.11 4.2600002
-3.49 1.11 4.3600001
-3.49 1.11 4.46
-3.49 1.11 4.5599999
-3.49 1.11 4.6599998
-3.49 1.11 4.7600002
-3.49 1.11 4.8600001
-3.49 1.11 4.96
-3.49 1.11 5.0599999
-3.49 1.11 5.1599998
-3.49 1.11 5.2600002
-3.49 1.11 5.3600001
-3.49 1.11 5.46
-3.49 1.11 5.5599999
-3.49 1.11 5.6599998
-3.49 1.11 5.7600002
-3.49 1.11 5.8600001
-3.49 1.11 5.96
-3.49 1.11 6.0599999
-3.49 1.11 6.1599998
-3.49 1.11 6.2600002
-3.49 1.11 6.3600001
-3.49 1.11 6.46
-3.49 1.11 6.5599999
-3.49 1.11 6.6599998
-3.49 1.11 6.7600002
-3.49 1.11 6.8600001
-3.49 1.11 6.96
-2.1900001 -4.8899999 -0.94
-2.1900001 -4.8899999 -0.83999997
-2.1900001 -4.8899999 -0.74000001
-2.1900001 -4.8899999 -0.63999999
-2.1900001 -4.8899999 -0.54000002
-2.1900001 -4.8899999 -0.44
-2.1900001 -4.8899999 -0.34
-2.1900001 -4.8899999 -0.23999999
-2.1900001 -4.8899999 -0.14
-2.1900001 -4.8899999 -0.039999999
-2.1900001 -4.8899999 0.059999999
-2.1900001 -4.8899999 0.16
-2.1900001 -4.8899999 0.25999999
-2.1900001 -4.8899999 0.36000001
-2.1900001 -4.8899999 0.46000001
-2.1900001 -4.8899999 0.56
-2.1900001 -4.8899999 0.66000003
-2.1900001 -4.8899999 0.75999999
-2.1900001 -4.8899999 0.86000001
-2.1900001 -4.8899999 0.95999998
-2.1900001 -4.8899999 1.0599999
-2.1900001 -4.8899999 1.16
-2.1900001 -4.8899999 1.26
-2.1900001 -4.8899999 1.36
-2.1900001 -4.8899999 1.46
-2.1900001 -4.8899999 1.5599999
-2.1900001 -4.8899999 1.66
-2.1900001 -4.8899999 1.76
-2.1900001 -4.8899999 1.86
-2.1900001 -4.8899999 1.96
-2.1900001 -4.8899999 2.0599999
-2.1900001 -4.8899999 2.1600001
-2.1900001 -4.8899999 2.26
-2.1900001 -4.8899999 2.3599999
-2.1900001 -4.8899999 2.46
-2.1900001 -4.8899999 2.5599999
-2.1900001 -4.8899999 2.6600001
-2.1900001 -4.8899999 2.76
-2.1900001 -4.8899999 2.8599999
-2.1900001 -4.8899999 2.96
-2.1900001 -4.8899999 3.0599999
-2.1900001 -4.8899999 3.1600001
-2.1900001 -4.8899999 3.26
-2.1900001 -4.8899999 3.3599999
-2.1900001 -4.8899999 3.46
-2.1900001 -4.8899999 3.5599999
-2.1900001 -4.8899999 3.6600001
-2.1900001 -4.8899999 3.76
-2.1900001 -4.8899999 3.8599999
-2.1900001 -4.8899999 3.96
-2.1900001 -4.8899999 4.0599999
-2.1900001 -4.8899999 4.1599998
-2.1900001 -4.8899999 4.2600002
-2.1900001 -4.8899999 4.3600001
-2.1900001 -4.8899999 4.46
-2.1900001 -4.8899999 4.5599999
-2.1900001 -4.8899999 4.6599998
-2.1900001 -4.8899999 4.7600002
-2.1900001 -4.8899999 4.8600001
-2.1900001 -4.8899999 4.96
-2.1900001 -4.8899999 5.0599999
-2.1900001 -4.8899999 5.1599998
-2.1900001 -4.8899999 5.2600002
-2.1900001 -4.8899999 5.3600001
-2.1900001 -4.8899999 5.46
-2.1900001 -4.8899999 5.5599999
-2.1900001 -4.8899999 5.6599998
-2.1900001 -4.8899999 5.7600002
-2.1900001 -4.8899999 5.8600001
-2.1900001 -4.8899999 5.96
-2.1900001 -4.8899999 6.0599999
-2.1900001 -4.8899999 6.1599998
-2.1900001 -4.8899999 6.2600002
-2.1900001 -4.8899999 6.3600001
-2.1900001 -4.8899999 6.46
-2.1900001 -4.8899999 6.5599999
-2.1900001 -4.8899999 6.6599998
-2.1900001 -4.8899999 6.7600002
-2.1900001 -4.8899999 6.8600001
-2.1900001 -4.8899999 6.96
-2.1900001 -4.79 -0.94
-2.1900001 -4.79 -0.83999997
-2.1900001 -4.79 -0.74000001
-2.1900001 -4.79 -0.63999999
-2.1900001 -4.79 -0.54000002
-2.1900001 -4.79 -0.44
-2.1900001 -4.79 -0.34
-2.1900001 -4.79 -0.23999999
-2.1900001 -4.79 -0.14
-2.1900001 -4.79 -0.039999999
-2.1900001 -4.79 0.059999999
-2.1900001 -4.79 0.16
-2.1900001 -4.79 0.25999999
-2.1900001 -4.79 0.36000001
-2.1900001 -4.79 0.46000001
-2.1900001 -4.79 0.56
-2.1900001 -4.79 0.66000003
-2.1900001 -4.79 0.75999999
-2.1900001 -4.79 0.86000001
-2.1900001 -4.79 0.95999998
-2.1900001 -4.79 1.0599999
-2.1900001 -4.79 1.16
-2.1900001 -4.79 1.26
-2.1900001 -4.79 1.36
-2.1900001 -4.79 1.46
-2.1900001 -4.79 1.5599999
-2.1900001 -4.79 1.66
-2.1900001 -4.79 1.76
-2.1900001 -4.79 1.86
-2.1900001 -4.79 1.96
-2.1900001 -4.79 2.0599999
-2.1900001 -4.79 2.1600001
-2.1900001 -4.79 2.26
-2.1900001 -4.79 2.3599999
-2.1900001 -4.79 2.46
-2.1900001 -4.79 2.5599999
-2.1900001 -4.79 2.6600001
-2.1900001 -4.79 2.76
-2.1900001 -4.79 2.8599999
-2.1900001 -4.79 2.96
-2.1900001 -4.79 3.0599999
-2.1900001 -4.79 3.1600001
-2.1900001 -4.79 3.26
-2.1900001 -4.79 3.3599999
-2.1900001 -4.79 3.46
-2.1900001 -4.79 3.5599999
-2.1900001 -4.79 3.6600001
-2.1900001 -4.79 3.76
-2.1900001 -4.79 3.8599999
-2.1900001 -4.79 3.96
-2.1900001 -4.79 4.0599999
-2.1900001 -4.79 4.1599998
-2.1900001 -4.79 4.2600002
-2.1900001 -4.79 4.3600001
-2.1900001 -4.79 4.46
-2.1900001 -4.79 4.5599999
-2.1900001 -4.79 4.6599998
-2.1900001 -4.79 4.7600002
-2.1900001 -4.79 4.8600001
-2.1900001 -4.79 4.96
-2.1900001 -4.79 5.0599999
-2.1900001 -4.79 5.1599998
-2.1900001 -4.79 5.2600002
-2.1900001 -4.79 5.3600001
-2.1900001 -4.79 5.46
-2.1900001 -4.79 5.5599999
-2.1900001 -4.79 5.6599998
-2.1900001 -4.79 5.7600002
-2.1900001 -4.79 5.8600001
-2.1900001 -4.79 5.96
-2.1900001 -4.79 6.0599999
-2.1900001 -4.79 6.1599998
-2.1900001 -4.79 6.2600002
-2.1900001 -4.79 6.3600001
-2.1900001 -4.79 6.46
-2.1900001 -4.79 6.5599999
-2.1900001 -4.79 6.6599998
-2.1900001 -4.79 6.7600002
-2.1900001 -4.79 6.8600001
-2.1900001 -4.79 6.96
-2.0899999 -4.8899999 -0.94
-2.0899999 -4.8899999 -0.83999997
-2.0899999 -4.8899999 -0.74000001
-2.0899999 -4.8899999 -0.63999999
-2.0899999 -4.8899999 -0.54000002
-2.0899999 -4.8899999 -0.44
-2.0899999 -4.8899999 -0.34
-2.0899999 -4.8899999 -0.23999999
-2.0899999 -4.8899999 -0.14
-2.0899999 -4.8899999 -0.039999999
-2.0899999 -4.8899999 0.059999999
-2.0899999 -4.8899999 0.16
-2.0899999 -4.8899999 0.25999999
-2.0899999 -4.8899999 0.36000001
-2.0899999 -4.8899999 0.46000001
-2.0899999 -4.8899999 0.56
-2.0899999 -4.8899999 0.66000003
-2.0899999 -4.8899999 0.75999999
-2.0899999 -4.8899999 0.86000001
-2.0899999 -4.8899999 0.95999998
-2.0899999 -4.8899999 1.0599999
-2.0899999 -4.8899999 1.16
-2.0899999 -4.8899999 1.26
-2.0899999 -4.8899999 1.36
-2.0899999 -4.8899999 1.46
-2.0899999 -4.8899999 1.5599999
-2.0899999 -4.8899999 1.66
-2.0899999 -4.8899999 1.76
-2.0899999 -4.8899999 1.86
-2.0899999 -4.8899999 1.96
-2.0899999 -4.8899999 2.0599999
-2.0899999 -4.8899999 2.1600001
-2.0899999 -4.8899999 2.26
-2.0899999 -4.8899999 2.3599999
-2.0899999 -4.8899999 2.46
-2.0899999 -4.8899999 2.5599999
-2.0899999 -4.8899999 2.6600001
-2.0899999 -4.8899999 2.76
-2.0899999 -4.8899999 2.8599999
-2.0899999 -4.8899999 2.96
-2.0899999 -4.8899999 3.0599999
-2.0899999 -4.8899999 3.1600001
-2.0899999 -4.8899999 3.26
-2.0899999 -4.8899999 3.3599999
-2.0899999 -4.8899999 3.46
-2.0899999 -4.8899999 3.5599999
-2.0899999 -4.8899999 3.6600001
-2.0899999 -4.8899999 3.76
-2.0899999 -4.8899999 3.8599999
-2.0899999 -4.8899999 3.96
-2.0899999 -4.8899999 4.0599999
-2.0899999 -4.8899999 4.1599998
-2.0899999 -4.8899999 4.2600002
-2.0899999 -4.8899999 4.3600001
-2.0899999 -4.8899999 4.46
-2.0899999 -4.8899999 4.5599999
-2.0899999 -4.8899999 4.6599998
-2.0899999 -4.8899999 4.7600002
-2.0899999 -4.8899999 4.8600001
-2.0899999 -4.8899999 4.96
-2.0899999 -4.8899999 5.0599999
-2.0899999 -4.8899999 5.1599998
-2.0899999 -4.8899999 5.2600002
-2.0899999 -4.8899999 5.3600001
-2.0899999 -4.8899999 5.46
-2.0899999 -4.8899999 5.5599999
-2.0899999 -4.8899999 5.6599998
-2.0899999 -4.8899999 5.7600002
-2.0899999 -4.8899999 5.8600001
-2.0899999 -4.8899999 5.96
-2.0899999 -4.8899999 6.0599999
-2.0899999 -4.8899999 6.1599998
-2.0899999 -4.8899999 6.2600002
-2.0899999 -4.8899999 6.3600001
-2.0899999 -4.8899999 6.46
-2.0899999 -4.8899999 6.5599999
-2.0899999 -4.8899999 6.6599998
-2.0899999 -4.8899999 6.7600002
-2.0899999 -4.8899999 6.8600001
-2.0899999 -4.8899999 6.96
-2.0899999 -4.79 -0.94
-2.0899999 -4.79 -0.83999997
-2.0899999 -4.79 -0.74000001
-2.0899999 -4.79 -0.63999999
-2.0899999 -4.79 -0.54000002
-2.0899999 -4.79 -0.44
-2.0899999 -4.79 -0.34
-2.0899999 -4.79 -0.23999999
-2.0899999 -4.79 -0.14
-2.0899999 -4.79 -0.039999999
-2.0899999 -4.79 0.059999999
-2.0899999 -4.79 0.16
-2.0899999 -4.79 0.25999999
-2.0899999 -4.79 0.36000001
-2.0899999 -4.79 0.46000001
-2.0899999 -4.79 0.56
-2.0899999 -4.79 0.66000003
-2.0899999 -4.79 0.75999999
-2.0899999 -4.79 0.86000001
-2.0899999 -4.79 0.95999998
-2.0899999 -4.79 1.0599999
-2.0899999 -4.79 1.16
-2.0899999 -4.79 1.26
-2.0899999 -4.79 1.36
-2.0899999 -4.79 1.46
-2.0899999 -4.79 1.5599999
-2.0899999 -4.79 1.66
-2.0899999 -4.79 1.76
-2.0899999 -4.79 1.86
-2.0899999 -4.79 1.96
-2.0899999 -4.79 2.0599999
-2.0899999 -4.79 2.1600001
-2.0899999 -4.79 2.26
-2.0899999 -4.79 2.3599999
-2.0899999 -4.79 2.46
-2.0899999 -4.79 2.5599999
-2.0899999 -4.79 2.6600001
-2.0899999 -4.79 2.76
-2.0899999 -4.79 2.8599999
-2.0899999 -4.79 2.96
-2.0899999 -4.79 3.0599999
-2.0899999 -4.79 3.1600001
-2.0899999 -4.79 3.26
-2.0899999 -4.79 3.3599999
-2.0899999 -4.79 3.46
-2.0899999 -4.79 3.5599999
-2.0899999 -4.79 3.6600001
-2.0899999 -4.79 3.76
-2.0899999 -4.79 3.8599999
-2.0899999 -4.79 3.96
-2.0899999 -4.79 4.0599999
-2.0899999 -4.79 4.1599998
-2.0899999 -4.79 4.2600002
-2.0899999 -4.79 4.3600001
-2.0899999 -4.79 4.46
-2.0899999 -4.79 4.5599999
-2.0899999 -4.79 4.6599998
-2.0899999 -4.79 4.7600002
-2.0899999 -4.79 4.8600001
-2.0899999 -4.79 4.96
-2.0899999 -4.79 5.0599999
-2.0899999 -4.79 5.1599998
-2.0899999 -4.79 5.2600002
-2.0899999 -4.79 5.3600001
-2.0899999 -4.79 5.46
-2.0899999 -4.79 5.5599999
-2.0899999 -4.79 5.6599998
-2.0899999 -4.79 5.7600002
-2.0899999 -4.79 5.8600001
-2.0899999 -4.79 5.96
-2.0899999 -4.79 6.0599999
-2.0899999 -4.79 6.1599998
-2.0899999 -4.79 6.2600002
-2.0899999 -4.79 6.3600001
-2.0899999 -4.79 6.46
-2.0899999 -4.79 6.5599999
-2.0899999 -4.79 6.6599998
-2.0899999 -4.79 6.7600002
-2.0899999 -4.79 6.8600001
-2.0899999 -4.79 6.96
0.50999999 -1.89 -0.94
0.50999999 -1.89 -0.83999997
0.50999999 -1.89 -0.74000001
0.50999999 -1.89 -0.63999999
0.50999999 -1.89 -0.54000002
0.50999999 -1.89 -0.44
0.50999999 -1.89 -0.34
0.50999999 -1.89 -0.23999999
0.50999999 -1.89 -0.14
0.50999999 -1.89 -0.039999999
0.50999999 -1.89 0.059999999
0.50999999 -1.89 0.16
0.50999999 -1.89 0.25999999
0.50999999 -1.89 0.36000001
0.50999999 -1.89 0.46000001
0.50999999 -1.89 0.56
0.50999999 -1.89 0.66000003
0.50999999 -1.89 0.75999999
0.50999999 -1.89 0.86000001
0.50999999 -1.89 0.95999998
0.50999999 -1.89 1.0599999
0.50999999 -1.89 1.16
0.50999999 -1.89 1.26
0.50999999 -1.89 1.36
0.50999999 -1.89 1.46
0.50999999 -1.89 1.5599999
0.50999999 -1.89 1.66
0.50999999 -1.89 1.76
0.50999999 -1.89 1.86
0.50999999 -1.89 1.96
0.50999999 -1.89 2.0599999
0.50999999 -1.89 2.1600001
0.50999999 -1.89 2.26
0.50999999 -1.89 2.3599999
0.50999999 -1.89 2.46
0.50999999 -1.89 2.5599999
0.50999999 -1.89 2.6600001
0.50999999 -1.89 2.76
0.50999999 -1.89 2.8599999
0.50999999 -1.89 2.96
0.50999999 -1.89 3.0599999
0.50999999 -1.89 3.1600001
0.50999999 -1.89 3.26
0.50999999 -1.89 3.3599999
0.50999999 -1.89 3.46
0.50999999 -1.89 3.5599999
0.50999999 -1.89 3.6600001
0.50999999 -1.89 3.76
0.50999999 -1.89 3.8599999
0.50999999 -1.89 3.96
0.50999999 -1.89 4.0599999
0.50999999 -1.89 4.1599998
0.50999999 -1.89 4.2600002
0.50999999 -1.89 4.3600001
0.50999999 -1.89 4.46
0.50999999 -1.89 4.5599999
0.50999999 -1.89 4.6599998
0.50999999 -1.89 4.7600002
0.50999999 -1.89 4.8600001
0.50999999 -1.89 4.96
0.50999999 -1.89 5.0599999
0.50999999 -1.89 5.1599998
0.50999999 -1.89 5.2600002
0.50999999 -1.89 5.3600001
0.50999999 -1.89 5.46
0.50999999 -1.89 5.5599999
0.50999999 -1.89 5.6599998
0.50999999 -1.89 5.7600002
0.50999999 -1.89 5.8600001
0.50999999 -1.89 5.96
0.50999999 -1.89 6.0599999
0.50999999 -1.89 6.1599998
0.50999999 -1.89 6.2600002
0.50999999 -1.89 6.3600001
0.50999999 -1.89 6.46
0.50999999 -1.89 6.5599999
0.50999999 -1.89 6.6599998
0.50999999 -1.89 6.7600002
0.50999999 -1.89 6.8600001
0.50999999 -1.89 6.96
-4.29 -2.49 -0.94
-4.29 -2.49 -0.83999997
-4.29 -2.49 -0.74000001
-4.29 -2.49 -0.63999999
-4.29 -2.49 -0.54000002
-4.29 -2.49 -0.44
-4.29 -2.49 -0.34
-4.29 -2.49 -0.23999999
-4.29 -2.49 -0.14
-4.29 -2.49 -0.039999999
-4.29 -2.49 0.059999999
-4.29 -2.49 0.16
-4.29 -2.49 0.25999999
-4.29 -2.49 0.36000001
-4.29 -2.49 0.46000001
-4.29 -2.49 0.56
-4.29 -2.49 0.66000003
-4.29 -2.49 0.75999999
-4.29 -2.49 0.86000001
-4.29 -2.49 0.95999998
-4.29 -2.49 1.0599999
-4.29 -2.49 1.16
-4.29 -2.49 1.26
-4.29 -2.49 1.36
-4.29 -2.49 1.46
-4.29 -2.49 1.5599999
-4.29 -2.49 1.66
-4.29 -2.49 1.76
-4.29 -2.49 1.86
-4.29 -2.49 1.96
-4.29 -2.49 2.0599999
-4.29 -2.49 2.1600001
-4.29 -2.49 2.26
-4.29 -2.49 2.3599999
-4.29 -2.49 2.46
-4.29 -2.49 2.5599999
-4.29 -2.49 2.6600001
-4.29 -2.49 2.76
-4.29 -2.49 2.8599999
-4.29 -2.49 2.96
-4.29 -2.49 3.0599999
-4.29 -2.49 3.1600001
-4.29 -2.49 3.26
-4.29 -2.49 3.3599999
-4.29 -2.49 3.46
-4.29 -2.49 3.5599999
-4.29 -2.49 3.6600001
-4.29 -2.49 3.76
-4.29 -2.49 3.8599999
-4.29 -2.49 3.96
-4.29 -2.49 4.0599999
-4.29 -2.49 4.1599998
-4.29 -2.49 4.2600002
-4.29 -2.49 4.3600001
-4.29 -2.49 4.46
-4.29 -2.49 4.5599999
-4.29 -2.49 4.6599998
-4.29 -2.49 4.7600002
-4.29 -2.49 4.8600001
-4.29 -2.49 4.96
-4.29 -2.49 5.0599999
-4.29 -2.49 5.1599998
-4.29 -2.49 5.2600002
-4.29 -2.49 5.3600001
-4.29 -2.49 5.46
-4.29 -2.49 5.5599999
-4.29 -2.49 5.6599998
-4.29 -2.49 5.7600002
-4.29 -2.49 5.8600001
-4.29 -2.49 5.96
-4.29 -2.49 6.0599999
-4.29 -2.49 6.1599998
-4.29 -2.49 6.2600002
-4.29 -2.49 6.3600001
-4.29 -2.49 6.46
-4.29 -2.49 6.5599999
-4.29 -2.49 6.6599998
-4.29 -2.49 6.7600002
-4.29 -2.49 6.8600001
-4.29 -2.49 6.96
-4.29 -2.3900001 -0.94
-4.29 -2.3900001 -0.83999997
-4.29 -2.3900001 -0.74000001
-4.29 -2.3900001 -0.63999999
-4.29 -2.3900001 -0.54000002
-4.29 -2.3900001 -0.44
-4.29 -2.3900001 -0.34
-4.29 -2.3900001 -0.23999999
-4.29 -2.3900001 -0.14
-4.29 -2.3900001 -0.039999999
-4.29 -2.3900001 0.059999999
-4.29 -2.3900001 0.16
-4.29 -2.3900001 0.25999999
-4.29 -2.3900001 0.36000001
-4.29 -2.3900001 0.46000001
-4.29 -2.3900001 0.56
-4.29 -2.3900001 0.66000003
-4.29 -2.3900001 0.75999999
-4.29 -2.3900001 0.86000001
-4.29 -2.3900001 0.95999998
-4.29 -2.3900001 1.0599999
-4.29 -2.3900001 1.16
-4.29 -2.3900001 1.26
-4.29 -2.3900001 1.36
-4.29 -2.3900001 1.46
-4.29 -2.3900001 1.5599999
-4.29 -2.3900001 1.66
-4.29 -2.3900001 1.76
-4.29 -2.3900001 1.86
-4.29 -2.3900001 1.96
-4.29 -2.3900001 2.0599999
-4.29 -2.3900001 2.1600001
-4.29 -2.3900001 2.26
-4.29 -2.3900001 2.3599999
-4.29 -2.3900001 2.46
-4.29 -2.3900001 2.5599999
-4.29 -2.3900001 2.6600001
-4.29 -2.3900001 2.76
-4.29 -2.3900001 2.8599999
-4.29 -2.3900001 2.96
-4.29 -2.3900001 3.0599999
-4.29 -2.3900001 3.1600001
-4.29 -2.3900001 3.26
-4.29 -2.3900001 3.3599999
-4.29 -2.3900001 3.46
-4.29 -2.3900001 3.5599999
-4.29 -2.3900001 3.6600001
-4.29 -2.3900001 3.76
-4.29 -2.3900001 3.8599999
-4.29 -2.3900001 3.96
-4.29 -2.3900001 4.0599999
-4.29 -2.3900001 4.1599998
-4.29 -2.3900001 4.2600002
-4.29 -2.3900001 4.3600001
-4.29 -2.3900001 4.46
-4.29 -2.3900001 4.5599999
-4.29 -2.3900001 4.6599998
-4.29 -2.3900001 4.7600002
-4.29 -2.3900001 4.8600001
-4.29 -2.3900001 4.96
-4.29 -2.3900001 5.0599999
-4.29 -2.3900001 5.1599998
-4.29 -2.3900001 5.2600002
-4.29 -2.3900001 5.3600001
-4.29 -2.3900001 5.46
-4.29 -2.3900001 5.5599999
-4.29 -2.3900001 5.6599998
-4.29 -2.3900001 5.7600002
-4.29 -2.3900001 5.8600001
-4.29 -2.3900001 5.96
-4.29 -2.3900001 6.0599999
-4.29 -2.3900001 6.1599998
-4.29 -2.3900001 6.2600002
-4.29 -2.3900001 6.3600001
-4.29 -2.3900001 6.46
-4.29 -2.3900001 6.5599999
-4.29 -2.3900001 6.6599998
-4.29 -2.3900001 6.7600002
-4.29 -2.3900001 6.8600001
-4.29 -2.3900001 6.96
-4.1900001 -2.49 -0.94
-4.1900001 -2.49 -0.83999997
-4.1900001 -2.49 -0.74000001
-4.1900001 -2.49 -0.63999999
-4.1900001 -2.49 -0.54000002
-4.1900001 -2.49 -0.44
-4.1900001 -2.49 -0.34
-4.1900001 -2.49 -0.23999999
-4.1900001 -2.49 -0.14
-4.1900001 -2.49 -0.039999999
-4.1900001 -2.49 0.059999999
-4.1900001 -2.49 0.16
-4.1900001 -2.49 0.25999999
-4.1900001 -2.49 0.36000001
-4.1900001 -2.49 0.46000001
-4.1900001 -2.49 0.56
-4.1900001 -2.49 0.66000003
-4.1900001 -2.49 0.75999999
-4.1900001 -2.49 0.86000001
-4.1900001 -2.49 0.95999998
-4.1900001 -2.49 1.0599999
-4.1900001 -2.49 1.16
-4.1900001 -2.49 1.26
-4.1900001 -2.49 1.36
-4.1900001 -2.49 1.46
-4.1900001 -2.49 1.5599999
-4.1900001 -2.49 1.66
-4.1900001 -2.49 1.76
-4.1900001 -2.49 1.86
-4.1900001 -2.49 1.96
-4.1900001 -2.49 2.0599999
-4.1900001 -2.49 2.1600001
-4.1900001 -2.49 2.26
-4.1900001 -2.49 2.3599999
-4.1900001 -2.49 2.46
-4.1900001 -2.49 2.5599999
-4.1900001 -2.49 2.6600001
-4.1900001 -2.49 2.76
-4.1900001 -2.49 2.8599999
-4.1900001 -2.49 2.96
-4.1900001 -2.49 3.0599999
-4.1900001 -2.49 3.1600001
-4.1900001 -2.49 3.26
-4.1900001 -2.49 3.3599999
-4.1900001 -2.49 3.46
-4.1900001 -2.49 3.5599999
-4.1900001 -2.49 3.6600001
-4.1900001 -2.49 3.76
-4.1900001 -2.49 3.8599999
-4.1900001 -2.49 3.96
-4.1900001 -2.49 4.0599999
-4.1900001 -2.49 4.1599998
-4.1900001 -2.49 4.2600002
-4.1900001 -2.49 4.3600001
-4.1900001 -2.49 4.46
-4.1900001 -2.49 4.5599999
-4.1900001 -2.49 4.6599998
-4.1900001 -2.49 4.7600002
-4.1900001 -2.49 4.8600001
-4.1900001 -2.49 4.96
-4.1900001 -2.49 5.0599999
-4.1900001 -2.49 5.1599998
-4.1900001 -2.49 5.2600002
-4.1900001 -2.49 5.3600001
-4.1900001 -2.49 5.46
-4.1900001 -2.49 5.5599999
-4.1900001 -2.49 5.6599998
-4.1900001 -2.49 5.7600002
-4.1900001 -2.49 5.8600001
-4.1900001 -2.49 5.96
-4.1900001 -2.49 6.0599999
-4.1900001 -2.49 6.1599998
-4.1900001 -2.49 6.2600002
-4.1900001 -2.49 6.3600001
-4.1900001 -2.49 6.46
-4.1900001 -2.49 6.5599999
-4.1900001 -2.49 6.6599998
-4.1900001 -2.49 6.7600002
-4.1900001 -2.49 6.8600001
-4.1900001 -2.49 6.96
1.01 -3.49 -0.94
1.01 -3.49 -0.83999997
1.01 -3.49 -0.74000001
1.01 -3.49 -0.63999999
1.01 -3.49 -0.54000002
1.01 -3.49 -0.44
1.01 -3.49 -0.34
1.01 -3.49 -0.23999999
1.01 -3.49 -0.14
1.01 -3.49 -0.039999999
1.01 -3.49 0.059999999
1.01 -3.49 0.16
1.01 -3.49 0.25999999
1.01 -3.49 0.36000001
1.01 -3.49 0.46000001
1.01 -3.49 0.56
1.01 -3.49 0.66000003
1.01 -3.49 0.75999999
1.01 -3.49 0.86000001
1.01 -3.49 0.95999998
1.01 -3.49 1.0599999
1.01 -3.49 1.16
1.01 -3.49 1.26
1.01 -3.49 1.36
1.01 -3.49 1.46
1.01 -3.49 1.5599999
1.01 -3.49 1.66
1.01 -3.49 1.76
1.01 -3.49 1.86
1.01 -3.49 1.96
1.01 -3.49 2.0599999
1.01 -3.49 2.1600001
1.01 -3.49 2.26
1.01 -3.49 2.3599999
1.01 -3.49 2.46
1.01 -3.49 2.5599999
1.01 -3.49 2.6600001
1.01 -3.49 2.76
1.01 -3.49 2.8599999
1.01 -3.49 2.96
1.01 -3.49 3.0599999
1.01 -3.49 3.1600001
1.01 -3.49 3.26
1.01 -3.49 3.3599999
1.01 -3.49 3.46
1.01 -3.49 3.5599999
1.01 -3.49 3.6600001
1.01 -3.49 3.76
1.01 -3.49 3.8599999
1.01 -3.49 3.96
1.01 -3.49 4.0599999
1.01 -3.49 4.1599998
1.01 -3.49 4.2600002
1.01 -3.49 4.3600001
1.01 -3.49 4.46
1.01 -3.49 4.5599999
1.01 -3.49 4.6599998
1.01 -3.49 4.7600002
1.01 -3.49 4.8600001
1.01 -3.49 4.96
1.01 -3.49 5.0599999
1.01 -3.49 5.1599998
1.01 -3.49 5.2600002
1.01 -3.49 5.3600001
1.01 -3.49 5.46
1.01 -3.49 5.5599999
1.01 -3.49 5.6599998
1.01 -3.49 5.7600002
1.01 -3.49 5.8600001
1.01 -3.49 5.96
1.01 -3.49 6.0599999
1.01 -3.49 6.1599998
1.01 -3.49 6.2600002
1.01 -3.49 6.3600001
1.01 -3.49 6.46
1.01 -3.49 6.5599999
1.01 -3.49 6.6599998
1.01 -3.49 6.7600002
1.01 -3.49 6.8600001
1.01 -3.49 6.96
3.4100001 -0.49000001 -0.94
3.4100001 -0.49000001 -0.83999997
3.4100001 -0.49000001 -0.74000001
3.4100001 -0.49000001 -0.63999999
3.4100001 -0.49000001 -0.54000002
3.4100001 -0.49000001 -0.44
3.4100001 -0.49000001 -0.34
3.4100001 -0.49000001 -0.23999999
3.4100001 -0.49000001 -0.14
3.4100001 -0.49000001 -0.039999999
3.4100001 -0.49000001 0.059999999
3.4100001 -0.49000001 0.16
3.4100001 -0.49000001 0.25999999
3.4100001 -0.49000001 0.36000001
3.4100001 -0.49000001 0.46000001
3.4100001 -0.49000001 0.56
3.4100001 -0.49000001 0.66000003
3.4100001 -0.49000001 0.75999999
3.4100001 -0.49000001 0.86000001
3.4100001 -0.49000001 0.95999998
3.4100001 -0.49000001 1.0599999
3.4100001 -0.49000001 1.16
3.4100001 -0.49000001 1.26
3.4100001 -0.49000001 1.36
3.4100001 -0.49000001 1.46
3.4100001 -0.49000001 1.5599999
3.4100001 -0.49000001 1.66
3.4100001 -0.49000001 1.76
3.4100001 -0.49000001 1.86
3.4100001 -0.49000001 1.96
3.4100001 -0.49000001 2.0599999
3.4100001 -0.49000001 2.1600001
3.4100001 -0.49000001 2.26
3.4100001 -0.49000001 2.3599999
3.4100001 -0.49000001 2.46
3.4100001 -0.49000001 2.5599999
3.4100001 -0.49000001 2.6600001
3.4100001 -0.49000001 2.76
3.4100001 -0.49000001 2.8599999
3.4100001 -0.49000001 2.96
3.4100001 -0.49000001 3.0599999
3.4100001 -0.49000001 3.1600001
3.4100001 -0.49000001 3.26
3.4100001 -0.49000001 3.3599999
3.4100001 -0.49000001 3.46
3.4100001 -0.49000001 3.5599999
3.4100001 -0.49000001 3.6600001
3.4100001 -0.49000001 3.76
3.4100001 -0.49000001 3.8599999
3.4100001 -0.49000001 3.96
3.4100001 -0.49000001 4.0599999
3.4100001 -0.49000001 4.1599998
3.4100001 -0.49000001 4.2600002
3.4100001 -0.49000001 4.3600001
3.4100001 -0.49000001 4.46
3.4100001 -0.49000001 4.5599999
3.4100001 -0.49000001 4.6599998
3.4100001 -0.49000001 4.7600002
3.4100001 -0.49000001 4.8600001
3.4100001 -0.49000001 4.96
3.4100001 -0.49000001 5.0599999
3.4100001 -0.49000001 5.1599998
3.4100001 -0.49000001 5.2600002
3.4100001 -0.49000001 5.3600001
3.4100001 -0.49000001 5.46
3.4100001 -0.49000001 5.5599999
3.4100001 -0.49000001 5.6599998
3.4100001 -0.49000001 5.7600002
3.4100001 -0.49000001 5.8600001
3.4100001 -0.49000001 5.96
3.4100001 -0.49000001 6.0599999
3.4100001 -0.49000001 6.1599998
3.4100001 -0.49000001 6.2600002
3.4100001 -0.49000001 6.3600001
3.4100001 -0.49000001 6.46
3.4100001 -0.49000001 6.5599999
3.4100001 -0.49000001 6.6599998
3.4100001 -0.49000001 6.7600002
3.4100001 -0.49000001 6.8600001
3.4100001 -0.49000001 6.96
-3.3900001 -2.0899999 -0.94
-3.3900001 -2.0899999 -0.83999997
-3.3900001 -2.0899999 -0.74000001
-3.3900001 -2.0899999 -0.63999999
-3.3900001 -2.0899999 -0.54000002
-3.3900001 -2.0899999 -0.44
-3.3900001 -2.0899999 -0.34
-3.3900001 -2.0899999 -0.23999999
-3.3900001 -2.0899999 -0.14
-3.3900001 -2.0899999 -0.039999999
-3.3900001 -2.0899999 0.059999999
-3.3900001 -2.0899999 0.16
-3.3900001 -2.0899999 0.25999999
-3.3900001 -2.0899999 0.36000001
-3.3900001 -2.0899999 0.46000001
-3.3900001 -2.0899999 0.56
-3.3900001 -2.0899999 0.66000003
-3.3900001 -2.0899999 0.75999999
-3.3900001 -2.0899999 0.86000001
-3.3900001 -2.0899999 0.95999998
-3.3900001 -2.0899999 1.0599999
-3.3900001 -2.0899999 1.16
-3.3900001 -2.0899999 1.26
-3.3900001 -2.0899999 1.36
-3.3900001 -2.0899999 1.46
-3.3900001 -2.0899999 1.5599999
-3.3900001 -2.0899999 1.66
-3.3900001 -2.0899999 1.76
-3.3900001 -2.0899999 1.86
-3.3900001 -2.0899999 1.96
-3.3900001 -2.0899999 2.0599999
-3.3900001 -2.0899999 2.1600001
-3.3900001 -2.0899999 2.26
-3.3900001 -2.0899999 2.3599999
-3.3900001 -2.0899999 2.46
-3.3900001 -2.0899999 2.5599999
-3.3900001 -2.0899999 2.6600001
-3.3900001 -2.0899999 2.76
-3.3900001 -2.0899999 2.8599999
-3.3900001 -2.0899999 2.96
-3.3900001 -2.0899999 3.0599999
-3.3900001 -2.0899999 3.1600001
-3.3900001 -2.0899999 3.26
-3.3900001 -2.0899999 3.3599999
-3.3900001 -2.0899999 3.46
-3.3900001 -2.0899999 3.5599999
-3.3900001 -2.0899999 3.6600001
-3.3900001 -2.0899999 3.76
-3.3900001 -2.0899999 3.8599999
-3.3900001 -2.0899999 3.96
-3.3900001 -2.0899999 4.0599999
-3.3900001 -2.0899999 4.1599998
-3.3900001 -2.0899999 4.2600002
-3.3900001 -2.0899999 4.3600001
-3.3900001 -2.0899999 4.46
-3.3900001 -2.0899999 4.5599999
-3.3900001 -2.0899999 4.6599998
-3.3900001 -2.0899999 4.7600002
-3.3900001 -2.0899999 4.8600001
-3.3900001 -2.0899999 4.96
-3.3900001 -2.0899999 5.0599999
-3.3900001 -2.0899999 5.1599998
-3.3900001 -2.0899999 5.2600002
-3.3900001 -2.0899999 5.3600001
-3.3900001 -2.0899999 5.46
-3.3900001 -2.0899999 5.5599999
-3.3900001 -2.0899999 5.6599998
-3.3900001 -2.0899999 5.7600002
-3.3900001 -2.0899999 5.8600001
-3.3900001 -2.0899999 5.96
-3.3900001 -2.0899999 6.0599999
-3.3900001 -2.0899999 6.1599998
-3.3900001 -2.0899999 6.2600002
-3.3900001 -2.0899999 6.3600001
-3.3900001 -2.0899999 6.46
-3.3900001 -2.0899999 6.5599999
-3.3900001 -2.0899999 6.6599998
-3.3900001 -2.0899999 6.7600002
-3.3900001 -2.0899999 6.8600001
-3.3900001 -2.0899999 6.96
-2.49 -0.79000002 -0.94
-2.49 -0.79000002 -0.83999997
-2.49 -0.79000002 -0.74000001
-2.49 -0.79000002 -0.63999999
-2.49 -0.79000002 -0.54000002
-2.49 -0.79000002 -0.44
-2.49 -0.79000002 -0.34
-2.49 -0.79000002 -0.23999999
-2.49 -0.79000002 -0.14
-2.49 -0.79000002 -0.039999999
-2.49 -0.79000002 0.059999999
-2.49 -0.79000002 0.16
-2.49 -0.79000002 0.25999999
-2.49 -0.79000002 0.36000001
-2.49 -0.79000002 0.46000001
-2.49 -0.79000002 0.56
-2.49 -0.79000002 0.66000003
-2.49 -0.79000002 0.75999999
-2.49 -0.79000002 0.86000001
-2.49 -0.79000002 0.95999998
-2.49 -0.79000002 1.0599999
-2.49 -0.79000002 1.16
-2.49 -0.79000002 1.26
-2.49 -0.79000002 1.36
-2.49 -0.79000002 1.46
-2.49 -0.79000002 1.5599999
-2.49 -0.79000002 1.66
-2.49 -0.79000002 1.76
-2.49 -0.79000002 1.86
-2.49 -0.79000002 1.96
-2.49 -0.79000002 2.0599999
-2.49 -0.79000002 2.1600001
-2.49 -0.79000002 2.26
-2.49 -0.79000002 2.3599999
-2.49 -0.79000002 2.46
-2.49 -0.79000002 2.5599999
-2.49 -0.79000002 2.6600001
-2.49 -0.79000002 2.76
-2.49 -0.79000002 2.8599999
-2.49 -0.79000002 2.96
-2.49 -0.79000002 3.0599999
-2.49 -0.79000002 3.1600001
-2.49 -0.79000002 3.26
-2.49 -0.79000002 3.3599999
-2.49 -0.79000002 3.46
-2.49 -0.79000002 3.5599999
-2.49 -0.79000002 3.6600001
-2.49 -0.79000002 3.76
-2.49 -0.79000002 3.8599999
-2.49 -0.79000002 3.96
-2.49 -0.79000002 4.0599999
-2.49 -0.79000002 4.1599998
-2.49 -0.79000002 4.2600002
-2.49 -0.79000002 4.3600001
-2.49 -0.79000002 4.46
-2.49 -0.79000002 4.5599999
-2.49 -0.79000002 4.6599998
-2.49 -0.79000002 4.7600002
-2.49 -0.79000002 4.8600001
-2.49 -0.79000002 4.96
-2.49 -0.79000002 5.0599999
-2.49 -0.79000002 5.1599998
-2.49 -0.79000002 5.2600002
-2.49 -0.79000002 5.3600001
-2.49 -0.79000002 5.46
-2.49 -0.79000002 5.5599999
-2.49 -0.79000002 5.6599998
-2.49 -0.79000002 5.7600002
-2.49 -0.79000002 5.8600001
-2.49 -0.79000002 5.96
-2.49 -0.79000002 6.0599999
-2.49 -0.79000002 6.1599998
-2.49 -0.79000002 6.2600002
-2.49 -0.79000002 6.3600001
-2.49 -0.79000002 6.46
-2.49 -0.79000002 6.5599999
-2.49 -0.79000002 6.6599998
-2.49 -0.79000002 6.7600002
-2.49 -0.79000002 6.8600001
-2.49 -0.79000002 6.96
-2.49 -0.69 -0.94
-2.49 -0.69 -0.83999997
-2.49 -0.69 -0.74000001
-2.49 -0.69 -0.63999999
-2.49 -0.69 -0.54000002
-2.49 -0.69 -0.44
-2.49 -0.69 -0.34
-2.49 -0.69 -0.23999999
-2.49 -0.69 -0.14
-2.49 -0.69 -0.039999999
-2.49 -0.69 0.059999999
-2.49 -0.69 0.16
-2.49 -0.69 0.25999999
-2.49 -0.69 0.36000001
-2.49 -0.69 0.46000001
-2.49 -0.69 0.56
-2.49 -0.69 0.66000003
-2.49 -0.69 0.75999999
-2.49 -0.69 0.86000001
-2.49 -0.69 0.95999998
-2.49 -0.69 1.0599999
-2.49 -0.69 1.16
-2.49 -0.69 1.26
-2.49 -0.69 1.36
-2.49 -0.69 1.46
-2.49 -0.69 1.5599999
-2.49 -0.69 1.66
-2.49 -0.69 1.76
-2.49 -0.69 1.86
-2.49 -0.69 1.96
-2.49 -0.69 2.0599999
-2.49 -0.69 2.1600001
-2.49 -0.69 2.26
-2.49 -0.69 2.3599999
-2.49 -0.69 2.46
-2.49 -0.69 2.5599999
-2.49 -0.69 2.6600001
-2.49 -0.69 2.76
-2.49 -0.69 2.8599999
-2.49 -0.69 2.96
-2.49 -0.69 3.0599999
-2.49 -0.69 3.1600001
-2.49 -0.69 3.26
-2.49 -0.69 3.3599999
-2.49 -0.69 3.46
-2.49 -0.69 3.5599999
-2.49 -0.69 3.6600001
-2.49 -0.69 3.76
-2.49 -0.69 3.8599999
-2.49 -0.69 3.96
-2.49 -0.69 4.0599999
-2.49 -0.69 4.1599998
-2.49 -0.69 4.2600002
-2.49 -0.69 4.3600001
-2.49 -0.69 4.46
-2.49 -0.69 4.5599999
-2.49 -0.69 4.6599998
-2.49 -0.69 4.7600002
-2.49 -0.69 4.8600001
-2.49 -0.69 4.96
-2.49 -0.69 5.0599999
-2.49 -0.69 5.1599998
-2.49 -0.69 5.2600002
-2.49 -0.69 5.3600001
-2.49 -0.69 5.46
-2.49 -0.69 5.5599999
-2.49 -0.69 5.6599998
-2.49 -0.69 5.7600002
-2.49 -0.69 5.8600001
-2.49 -0.69 5.96
-2.49 -0.69 6.0599999
-2.49 -0.69 6.1599998
-2.49 -0.69 6.2600002
-2.49 -0.69 6.3600001
-2.49 -0.69 6.46
-2.49 -0.69 6.5599999
-2.49 -0.69 6.6599998
-2.49 -0.69 6.7600002
-2.49 -0.69 6.8600001
-2.49 -0.69 6.96
-2.3900001 -0.79000002 -0.94
-2.3900001 -0.79000002 -0.83999997
-2.3900001 -0.79000002 -0.74000001
-2.3900001 -0.79000002 -0.63999999
-2.3900001 -0.79000002 -0.54000002
-2.3900001 -0.79000002 -0.44
-2.3900001 -0.79000002 -0.34
-2.3900001 -0.79000002 -0.23999999
-2.3900001 -0.79000002 -0.14
-2.3900001 -0.79000002 -0.039999999
-2.3900001 -0.79000002 0.059999999
-2.3900001 -0.79000002 0.16
-2.3900001 -0.79000002 0.25999999
-2.3900001 -0.79000002 0.36000001
-2.3900001 -0.79000002 0.46000001
-2.3900001 -0.79000002 0.56
-2.3900001 -0.79000002 0.66000003
-2.3900001 -0.79000002 0.75999999
-2.3900001 -0.79000002 0.86000001
-2.3900001 -0.79000002 0.95999998
-2.3900001 -0.79000002 1.0599999
-2.3900001 -0.79000002 1.16
-2.3900001 -0.79000002 1.26
-2.3900001 -0.79000002 1.36
-2.3900001 -0.79000002 1.46
-2.3900001 -0.79000002 1.5599999
-2.3900001 -0.79000002 1.66
-2.3900001 -0.79000002 1.76
-2.3900001 -0.79000002 1.86
-2.3900001 -0.79000002 1.96
-2.3900001 -0.79000002 2.0599999
-2.3900001 -0.79000002 2.1600001
-2.3900001 -0.79000002 2.26
-2.3900001 -0.79000002 2.3599999
-2.3900001 -0.79000002 2.46
-2.3900001 -0.79000002 2.5599999
-2.3900001 -0.79000002 2.6600001
-2.3900001 -0.79000002 2.76
-2.3900001 -0.79000002 2.8599999
-2.3900001 -0.79000002 2.96
-2.3900001 -0.79000002 3.0599999
-2.3900001 -0.79000002 3.1600001
-2.3900001 -0.79000002 3.26
-2.3900001 -0.79000002 3.3599999
-2.3900001 -0.79000002 3.46
-2.3900001 -0.79000002 3.5599999
-2.3900001 -0.79000002 3.6600001
-2.3900001 -0.79000002 3.76
-2.3900001 -0.79000002 3.8599999
-2.3900001 -0.79000002 3.96
-2.3900001 -0.79000002 4.0599999
-2.3900001 -0.79000002 4.1599998
-2.3900001 -0.79000002 4.2600002
-2.3900001 -0.79000002 4.3600001
-2.3900001 -0.79000002 4.46
-2.3900001 -0.79000002 4.5599999
-2.3900001 -0.79000002 4.6599998
-2.3900001 -0.79000002 4.7600002
-2.3900001 -0.79000002 4.8600001
-2.3900001 -0.79000002 4.96
-2.3900001 -0.79000002 5.0599999
-2.3900001 -0.79000002 5.1599998
-2.3900001 -0.79000002 5.2600002
-2.3900001 -0.79000002 5.3600001
-2.3900001 -0.79000002 5.46
-2.3900001 -0.79000002 5.5599999
-2.3900001 -0.79000002 5.6599998
-2.3900001 -0.79000002 5.7600002
-2.3900001 -0.79000002 5.8600001
-2.3900001 -0.79000002 5.96
-2.3900001 -0.79000002 6.0599999
-2.3900001 -0.79000002 6.1599998
-2.3900001 -0.79000002 6.2600002
-2.3900001 -0.79000002 6.3600001
-2.3900001 -0.79000002 6.46
-2.3900001 -0.79000002 6.5599999
-2.3900001 -0.79000002 6.6599998
-2.3900001 -0.79000002 6.7600002
-2.3900001 -0.79000002 6.8600001
-2.3900001 -0.79000002 6.96
-2.3900001 -0.69 -0.94
-2.3900001 -0.69 -0.83999997
-2.3900001 -0.69 -0.74000001
-2.3900001 -0.69 -0.63999999
-2.3900001 -0.69 -0.54000002
-2.3900001 -0.69 -0.44
-2.3900001 -0.69 -0.34
-2.3900001 -0.69 -0.23999999
-2.3900001 -0.69 -0.14
-2.3900001 -0.69 -0.039999999
-2.3900001 -0.69 0.059999999
-2.3900001 -0.69 0.16
-2.3900001 -0.69 0.25999999
-2.3900001 -0.69 0.36000001
-2.3900001 -0.69 0.46000001
-2.3900001 -0.69 0.56
-2.3900001 -0.69 0.66000003
-2.3900001 -0.69 0.75999999
-2.3900001 -0.69 0.86000001
-2.3900001 -0.69 0.95999998
-2.3900001 -0.69 1.0599999
-2.3900001 -0.69 1.16
-2.3900001 -0.69 1.26
-2.3900001 -0.69 1.36
-2.3900001 -0.69 1.46
-2.3900001 -0.69 1.5599999
-2.3900001 -0.69 1.66
-2.3900001 -0.69 1.76
-2.3900001 -0.69 1.86
-2.3900001 -0.69 1.96
-2.3900001 -0.69 2.0599999
-2.3900001 -0.69 2.1600001
-2.3900001 -0.69 2.26
-2.3900001 -0.69 2.3599999
-2.3900001 -0.69 2.46
-2.3900001 -0.69 2.5599999
-2.3900001 -0.69 2.6600001
-2.3900001 -0.69 2.76
-2.3900001 -0.69 2.8599999
-2.3900001 -0.69 2.96
-2.3900001 -0.69 3.0599999
-2.3900001 -0.69 3.1600001
-2.3900001 -0.69 3.26
-2.3900001 -0.69 3.3599999
-2.3900001 -0.69 3.46
-2.3900001 -0.69 3.5599999
-2.3900001 -0.69 3.6600001
-2.3900001 -0.69 3.76
-2.3900001 -0.69 3.8599999
-2.3900001 -0.69 3.96
-2.3900001 -0.69 4.0599999
-2.3900001 -0.69 4.1599998
-2.3900001 -0.69 4.2600002
-2.3900001 -0.69 4.3600001
-2.3900001 -0.69 4.46
-2.3900001 -0.69 4.5599999
-2.3900001 -0.69 4.6599998
-2.3900001 -0.69 4.7600002
-2.3900001 -0.69 4.8600001
-2.3900001 -0.69 4.96
-2.3900001 -0.69 5.0599999
-2.3900001 -0.69 5.1599998
-2.3900001 -0.69 5.2600002
-2.3900001 -0.69 5.3600001
-2.3900001 -0.69 5.46
-2.3900001 -0.69 5.5599999
-2.3900001 -0.69 5.6599998
-2.3900001 -0.69 5.7600002
-2.3900001 -0.69 5.8600001
-2.3900001 -0.69 5.96
-2.3900001 -0.69 6.0599999
-2.3900001 -0.69 6.1599998
-2.3900001 -0.69 6.2600002
-2.3900001 -0.69 6.3600001
-2.3900001 -0.69 6.46
-2.3900001 -0.69 6.5599999
-2.3900001 -0.69 6.6599998
-2.3900001 -0.69 6.7600002
-2.3900001 -0.69 6.8600001
-2.3900001 -0.69 6.96
-1.79 2.4100001 -0.94
-1.79 2.4100001 -0.83999997
-1.79 2.4100001 -0.74000001
-1.79 2.4100001 -0.63999999
-1.79 2.4100001 -0.54000002
-1.79 2.4100001 -0.44
-1.79 2.4100001 -0.34
-1.79 2.4100001 -0.23999999
-1.79 2.4100001 -0.14
-1.79 2.4100001 -0.039999999
-1.79 2.4100001 0.059999999
-1.79 2.4100001 0.16
-1.79 2.4100001 0.25999999
-1.79 2.4100001 0.36000001
-1.79 2.4100001 0.46000001
-1.79 2.4100001 0.56
-1.79 2.4100001 0.66000003
-1.79 2.4100001 0.75999999
-1.79 2.4100001 0.86000001
-1.79 2.4100001 0.95999998
-1.79 2.4100001 1.0599999
-1.79 2.4100001 1.16
-1.79 2.4100001 1.26
-1.79 2.4100001 1.36
-1.79 2.4100001 1.46
-1.79 2.4100001 1.5599999
-1.79 2.4100001 1.66
-1.79 2.4100001 1.76
-1.79 2.4100001 1.86
-1.79 2.4100001 1.96
-1.79 2.4100001 2.0599999
-1.79 2.4100001 2.1600001
-1.79 2.4100001 2.26
-1.79 2.4100001 2.3599999
-1.79 2.4100001 2.46
-1.79 2.4100001 2.5599999
-1.79 2.4100001 2.6600001
-1.79 2.4100001 2.76
-1.79 2.4100001 2.8599999
-1.79 2.4100001 2.96
-1.79 2.4100001 3.0599999
-1.79 2.4100001 3.1600001
-1.79 2.4100001 3.26
-1.79 2.4100001 3.3599999
-1.79 2.4100001 3.46
-1.79 2.4100001 3.5599999
-1.79 2.4100001 3.6600001
-1.79 2.4100001 3.76
-1.79 2.4100001 3.8599999
-1.79 2.4100001 3.96
-1.79 2.4100001 4.0599999
-1.79 2.4100001 4.1599998
-1.79 2.4100001 4.2600002
-1.79 2.4100001 4.3600001
-1.79 2.4100001 4.46
-1.79 2.4100001 4.5599999
-1.79 2.4100001 4.6599998
-1.79 2.4100001 4.7600002
-1.79 2.4100001 4.8600001
-1.79 2.4100001 4.96
-1.79 2.4100001 5.0599999
-1.79 2.4100001 5.1599998
-1.79 2.4100001 5.2600002
-1.79 2.4100001 5.3600001
-1.79 2.4100001 5.46
-1.79 2.4100001 5.5599999
-1.79 2.4100001 5.6599998
-1.79 2.4100001 5.7600002
-1.79 2.4100001 5.8600001
-1.79 2.4100001 5.96
-1.79 2.4100001 6.0599999
-1.79 2.4100001 6.1599998
-1.79 2.4100001 6.2600002
-1.79 2.4100001 6.3600001
-1.79 2.4100001 6.46
-1.79 2.4100001 6.5599999
-1.79 2.4100001 6.6599998
-1.79 2.4100001 6.7600002
-1.79 2.4100001 6.8600001
-1.79 2.4100001 6.96
-1.79 2.51 -0.94
-1.79 2.51 -0.83999997
-1.79 2.51 -0.74000001
-1.79 2.51 -0.63999999
-1.79 2.51 -0.54000002
-1.79 2.51 -0.44
-1.79 2.51 -0.34
-1.79 2.51 -0.23999999
-1.79 2.51 -0.14
-1.79 2.51 -0.039999999
-1.79 2.51 0.059999999
-1.79 2.51 0.16
-1.79 2.51 0.25999999
-1.79 2.51 0.36000001
-1.79 2.51 0.46000001
-1.79 2.51 0.56
-1.79 2.51 0.66000003
-1.79 2.51 0.75999999
-1.79 2.51 0.86000001
-1.79 2.51 0.95999998
-1.79 2.51 1.0599999
-1.79 2.51 1.16
-1.79 2.51 1.26
-1.79 2.51 1.36
-1.79 2.51 1.46
-1.79 2.51 1.5599999
-1.79 2.51 1.66
-1.79 2.51 1.76
-1.79 2.51 1.86
-1.79 2.51 1.96
-1.79 2.51 2.0599999
-1.79 2.51 2.1600001
-1.79 2.51 2.26
-1.79 2.51 2.3599999
-1.79 2.51 2.46
-1.79 2.51 2.5599999
