# .PCD v0.7 - Point Cloud Data file format
VERSION 0.7
FIELDS x y z
SIZE 4 4 4
TYPE F F F
COUNT 1 1 1
WIDTH 1902
HEIGHT 1
VIEWPOINT 0 0 0 1 0 0 0
POINTS 1902
DATA ascii
0.91000003 -0.58999997 2.1600001
0.91000003 -0.58999997 2.26
0.91000003 -0.58999997 2.3599999
0.91000003 -0.58999997 2.46
0.91000003 -0.58999997 2.5599999
0.91000003 -0.58999997 2.6600001
0.91000003 -0.58999997 2.76
0.91000003 -0.58999997 2.8599999
0.91000003 -0.49000001 -0.94
0.91000003 -0.49000001 -0.83999997
0.91000003 -0.49000001 -0.74000001
0.91000003 -0.49000001 -0.63999999
0.91000003 -0.49000001 -0.54000002
0.91000003 -0.49000001 -0.44
0.91000003 -0.49000001 -0.34
0.91000003 -0.49000001 -0.23999999
0.91000003 -0.49000001 -0.14
0.91000003 -0.49000001 -0.039999999
0.91000003 -0.49000001 0.059999999
0.91000003 -0.49000001 0.16
0.91000003 -0.49000001 0.25999999
0.91000003 -0.49000001 0.36000001
0.91000003 -0.49000001 0.46000001
0.91000003 -0.49000001 0.56
0.91000003 -0.49000001 0.66000003
0.91000003 -0.49000001 0.75999999
0.91000003 -0.49000001 0.86000001
0.91000003 -0.49000001 0.95999998
0.91000003 -0.49000001 1.0599999
1.01 -0.58999997 -0.94
1.01 -0.58999997 -0.83999997
1.01 -0.58999997 -0.74000001
1.01 -0.58999997 -0.63999999
1.01 -0.58999997 -0.54000002
1.01 -0.58999997 -0.44
1.01 -0.58999997 -0.34
1.01 -0.58999997 -0.23999999
1.01 -0.58999997 -0.14
1.01 -0.58999997 -0.039999999
1.01 -0.58999997 0.059999999
1.01 -0.58999997 0.16
1.01 -0.58999997 0.25999999
1.01 -0.58999997 0.36000001
1.01 -0.58999997 0.46000001
1.01 -0.58999997 0.56
1.01 -0.58999997 0.66000003
1.01 -0.58999997 0.75999999
1.01 -0.58999997 0.86000001
1.01 -0.58999997 0.95999998
1.01 -0.58999997 1.0599999
1.01 -0.58999997 1.16
1.01 -0.58999997 1.26
1.01 -0.58999997 1.36
1.01 -0.58999997 1.46
1.01 -0.58999997 1.5599999
1.01 -0.58999997 1.66
-0.090000004 2.3099999 -0.94
-0.090000004 2.3099999 -0.83999997
-0.090000004 2.3099999 -0.74000001
-0.090000004 2.3099999 -0.63999999
-0.090000004 2.3099999 -0.54000002
-0.090000004 2.3099999 -0.44
-0.090000004 2.3099999 -0.34
-0.090000004 2.3099999 -0.23999999
-0.090000004 2.3099999 -0.14
-0.090000004 2.3099999 -0.039999999
-0.090000004 2.3099999 0.059999999
-0.090000004 2.3099999 0.16
-0.090000004 2.3099999 0.25999999
-0.090000004 2.3099999 0.36000001
-0.090000004 2.3099999 0.46000001
-0.090000004 2.3099999 0.56
-0.090000004 2.3099999 0.66000003
-0.090000004 2.3099999 0.75999999
-0.090000004 2.3099999 0.86000001
-0.090000004 2.3099999 0.95999998
-0.090000004 2.3099999 1.0599999
-0.090000004 2.3099999 1.16
-0.090000004 2.3099999 1.26
-0.090000004 2.3099999 1.36
-0.090000004 2.3099999 1.46
-0.090000004 2.3099999 1.5599999
-0.090000004 2.3099999 1.66
-0.090000004 2.3099999 1.76
-0.090000004 2.3099999 1.86
-0.090000004 2.3099999 1.96
-0.090000004 2.3099999 2.0599999
-0.090000004 2.3099999 2.1600001
-0.090000004 2.3099999 2.26
2.01 -1.79 -0.94
2.01 -1.79 -0.83999997
2.01 -1.79 -0.74000001
2.01 -1.79 -0.63999999
2.01 -1.79 -0.54000002
2.01 -1.79 -0.44
2.01 -1.79 -0.34
2.01 -1.79 -0.23999999
2.01 -1.79 -0.14
2.01 -1.79 -0.039999999
2.01 -1.79 0.059999999
2.01 -1.79 0.16
2.01 -1.79 0.25999999
2.01 -1.79 0.36000001
2.01 -1.79 0.46000001
2.01 -1.79 0.56
2.01 -1.79 0.66000003
2.01 -1.79 0.75999999
2.01 -1.79 0.86000001
2.01 -1.79 0.95999998
2.01 -1.79 1.0599999
2.01 -1.79 1.16
2.01 -1.6900001 -0.94
2.01 -1.6900001 -0.83999997
2.01 -1.6900001 -0.74000001
2.01 -1.6900001 -0.63999999
2.01 -1.6900001 -0.54000002
2.01 -1.6900001 -0.44
2.01 -1.6900001 -0.34
2.01 -1.6900001 -0.23999999
2.01 -1.6900001 -0.14
2.01 -1.6900001 -0.039999999
2.01 -1.6900001 0.059999999
2.01 -1.6900001 0.16
2.01 -1.6900001 0.25999999
2.01 -1.6900001 0.36000001
2.01 -1.6900001 0.46000001
2.01 -1.6900001 0.56
2.01 -1.6900001 0.66000003
2.01 -1.6900001 0.75999999
2.01 -1.6900001 0.86000001
2.01 -1.6900001 0.95999998
2.01 -1.6900001 1.0599999
2.01 -1.6900001 1.16
2.01 -1.6900001 1.26
2.01 -1.6900001 1.36
2.01 -1.6900001 1.46
2.01 -1.6900001 1.5599999
2.1099999 -1.79 -0.94
2.1099999 -1.79 -0.83999997
2.1099999 -1.79 -0.74000001
2.1099999 -1.79 -0.63999999
2.1099999 -1.79 -0.54000002
2.1099999 -1.79 -0.44
2.1099999 -1.79 -0.34
2.1099999 -1.79 -0.23999999
2.1099999 -1.79 -0.14
2.1099999 -1.79 -0.039999999
2.1099999 -1.79 0.059999999
2.1099999 -1.79 0.16
2.1099999 -1.79 0.25999999
2.1099999 -1.79 0.36000001
2.1099999 -1.79 0.46000001
2.1099999 -1.79 0.56
2.1099999 -1.79 0.66000003
2.1099999 -1.79 0.75999999
2.1099999 -1.79 0.86000001
2.1099999 -1.79 0.95999998
2.1099999 -1.79 1.0599999
2.1099999 -1.6900001 -0.94
2.1099999 -1.6900001 -0.83999997
2.1099999 -1.6900001 -0.74000001
2.1099999 -1.6900001 -0.63999999
2.1099999 -1.6900001 -0.54000002
2.1099999 -1.6900001 -0.44
2.1099999 -1.6900001 -0.34
2.1099999 -1.6900001 -0.23999999
2.1099999 -1.6900001 -0.14
2.1099999 -1.6900001 -0.039999999
2.1099999 -1.6900001 0.059999999
2.1099999 -1.6900001 0.16
2.1099999 -1.6900001 0.25999999
2.1099999 -1.6900001 0.36000001
2.1099999 -1.6900001 0.46000001
2.1099999 -1.6900001 0.56
2.1099999 -1.6900001 0.66000003
2.1099999 -1.6900001 0.75999999
2.1099999 -1.6900001 0.86000001
2.1099999 -1.6900001 0.95999998
2.1099999 -1.6900001 1.0599999
2.1099999 -1.6900001 1.16
2.1099999 -1.6900001 1.26
2.1099999 -1.6900001 1.36
2.1099999 -1.6900001 1.46
2.1099999 -1.6900001 1.5599999
2.1099999 -1.6900001 1.66
2.1099999 -1.6900001 1.76
1.8099999 0.0099999998 -0.94
1.8099999 0.0099999998 -0.83999997
1.8099999 0.0099999998 -0.74000001
1.8099999 0.0099999998 -0.63999999
1.8099999 0.0099999998 -0.54000002
1.8099999 0.0099999998 -0.44
1.8099999 0.0099999998 -0.34
1.8099999 0.0099999998 -0.23999999
1.8099999 0.0099999998 -0.14
1.8099999 0.0099999998 -0.039999999
1.8099999 0.0099999998 0.059999999
1.8099999 0.0099999998 0.16
1.8099999 0.0099999998 0.25999999
1.8099999 0.0099999998 0.36000001
1.8099999 0.0099999998 0.46000001
1.8099999 0.0099999998 0.56
1.8099999 0.0099999998 0.66000003
1.8099999 0.0099999998 0.75999999
1.8099999 0.0099999998 0.86000001
1.8099999 0.0099999998 0.95999998
1.8099999 0.0099999998 1.0599999
1.8099999 0.0099999998 1.16
1.8099999 0.0099999998 1.26
1.8099999 0.0099999998 1.36
1.8099999 0.0099999998 1.46
1.8099999 0.0099999998 1.5599999
1.8099999 0.0099999998 1.66
1.8099999 0.0099999998 1.76
1.8099999 0.0099999998 1.86
1.8099999 0.0099999998 1.96
1.8099999 0.0099999998 2.0599999
1.8099999 0.0099999998 2.1600001
1.8099999 0.11 -0.94
1.8099999 0.11 -0.83999997
1.8099999 0.11 -0.74000001
1.8099999 0.11 -0.63999999
1.8099999 0.11 -0.54000002
1.8099999 0.11 -0.44
1.8099999 0.11 -0.34
1.8099999 0.11 -0.23999999
1.8099999 0.11 -0.14
1.8099999 0.11 -0.039999999
1.8099999 0.11 0.059999999
1.8099999 0.11 0.16
1.8099999 0.11 0.25999999
1.8099999 0.11 0.36000001
1.8099999 0.11 0.46000001
1.8099999 0.11 0.56
1.8099999 0.11 0.66000003
1.8099999 0.11 0.75999999
1.8099999 0.11 0.86000001
1.8099999 0.11 0.95999998
1.8099999 0.11 1.0599999
1.8099999 0.11 1.16
1.8099999 0.11 1.26
1.8099999 0.11 1.36
1.8099999 0.11 1.46
1.8099999 0.11 1.5599999
1.8099999 0.11 1.66
1.8099999 0.11 1.76
1.8099999 0.11 1.86
1.8099999 0.11 1.96
1.8099999 0.11 2.0599999
1.8099999 0.11 2.1600001
1.8099999 0.11 2.26
1.8099999 0.11 2.3599999
1.8099999 0.11 2.46
1.8099999 0.11 2.5599999
1.8099999 0.11 2.6600001
1.91 0.0099999998 -0.94
1.91 0.0099999998 -0.83999997
1.91 0.0099999998 -0.74000001
1.91 0.0099999998 -0.63999999
1.91 0.0099999998 -0.54000002
1.91 0.0099999998 -0.44
1.91 0.0099999998 -0.34
1.91 0.0099999998 -0.23999999
1.91 0.0099999998 -0.14
1.91 0.0099999998 -0.039999999
1.91 0.0099999998 0.059999999
1.91 0.0099999998 0.16
1.91 0.0099999998 0.25999999
1.91 0.0099999998 0.36000001
1.91 0.0099999998 0.46000001
1.91 0.0099999998 0.56
1.91 0.0099999998 0.66000003
1.91 0.0099999998 0.75999999
1.91 0.0099999998 0.86000001
1.91 0.0099999998 0.95999998
1.91 0.0099999998 1.0599999
1.91 0.0099999998 1.16
1.91 0.0099999998 1.26
1.91 0.0099999998 1.36
1.91 0.0099999998 1.46
1.91 0.0099999998 1.5599999
1.91 0.0099999998 1.66
1.91 0.0099999998 1.76
1.91 0.0099999998 1.86
1.91 0.0099999998 1.96
1.91 0.0099999998 2.0599999
1.91 0.0099999998 2.1600001
1.91 0.0099999998 2.26
1.91 0.0099999998 2.3599999
1.91 0.11 -0.94
1.91 0.11 -0.83999997
1.91 0.11 -0.74000001
1.91 0.11 -0.63999999
1.91 0.11 -0.54000002
1.91 0.11 -0.44
1.91 0.11 -0.34
1.91 0.11 -0.23999999
1.91 0.11 -0.14
1.91 0.11 -0.039999999
1.91 0.11 0.059999999
1.91 0.11 0.16
1.91 0.11 0.25999999
1.91 0.11 0.36000001
1.91 0.11 0.46000001
1.91 0.11 0.56
1.91 0.11 0.66000003
1.91 0.11 0.75999999
1.91 0.11 0.86000001
1.91 0.11 0.95999998
1.91 0.11 1.0599999
1.91 0.11 1.16
1.91 0.11 1.26
1.91 0.11 1.36
1.91 0.11 1.46
1.91 0.11 1.5599999
1.91 0.11 1.66
1.91 0.11 1.76
1.91 0.11 1.86
1.91 0.11 1.96
1.91 0.11 2.0599999
1.91 0.11 2.1600001
1.91 0.11 2.26
1.91 0.11 2.3599999
1.91 0.11 2.46
1.91 0.11 2.5599999
1.91 0.11 2.6600001
1.91 0.11 2.76
1.91 0.11 2.8599999
0.0099999998 -0.38999999 -0.94
0.0099999998 -0.38999999 -0.83999997
0.0099999998 -0.38999999 -0.74000001
0.0099999998 -0.38999999 -0.63999999
0.0099999998 -0.38999999 -0.54000002
0.0099999998 -0.38999999 -0.44
0.0099999998 -0.38999999 -0.34
0.0099999998 -0.38999999 -0.23999999
0.0099999998 -0.38999999 -0.14
0.0099999998 -0.38999999 -0.039999999
0.0099999998 -0.38999999 0.059999999
0.0099999998 -0.38999999 0.16
0.0099999998 -0.38999999 0.25999999
0.0099999998 -0.38999999 0.36000001
0.0099999998 -0.38999999 0.46000001
0.0099999998 -0.38999999 0.56
0.0099999998 -0.38999999 0.66000003
0.0099999998 -0.38999999 0.75999999
0.0099999998 -0.38999999 0.86000001
0.0099999998 -0.38999999 0.95999998
0.0099999998 -0.38999999 1.0599999
-0.49000001 0.91000003 -0.94
-0.49000001 0.91000003 -0.83999997
-0.49000001 0.91000003 -0.74000001
-0.49000001 0.91000003 -0.63999999
-0.49000001 0.91000003 -0.54000002
-0.49000001 0.91000003 -0.44
-0.49000001 0.91000003 -0.34
-0.49000001 0.91000003 -0.23999999
-0.49000001 0.91000003 -0.14
-0.49000001 0.91000003 -0.039999999
-0.49000001 0.91000003 0.059999999
-0.49000001 0.91000003 0.16
-0.49000001 0.91000003 0.25999999
-0.49000001 0.91000003 0.36000001
-0.49000001 0.91000003 0.46000001
-0.49000001 0.91000003 0.56
-0.49000001 0.91000003 0.66000003
-0.49000001 0.91000003 0.75999999
-0.49000001 0.91000003 0.86000001
-0.49000001 0.91000003 0.95999998
-0.49000001 1.01 -0.94
-0.49000001 1.01 -0.83999997
-0.49000001 1.01 -0.74000001
-0.49000001 1.01 -0.63999999
-0.49000001 1.01 -0.54000002
-0.49000001 1.01 -0.44
-0.49000001 1.01 -0.34
-0.49000001 1.01 -0.23999999
-0.49000001 1.01 -0.14
-0.49000001 1.01 -0.039999999
-0.49000001 1.01 0.059999999
-0.49000001 1.01 0.16
-0.49000001 1.01 0.25999999
-0.49000001 1.01 0.36000001
-0.49000001 1.01 0.46000001
-0.49000001 1.01 0.56
-0.49000001 1.01 0.66000003
-0.49000001 1.01 0.75999999
-0.49000001 1.01 0.86000001
-0.49000001 1.01 0.95999998
-0.49000001 1.01 1.0599999
-0.49000001 1.01 1.16
-0.49000001 1.01 1.26
-0.49000001 1.01 1.36
-0.49000001 1.01 1.46
-0.49000001 1.01 1.5599999
-0.49000001 1.01 1.66
-0.49000001 1.01 1.76
-0.49000001 1.01 1.86
-0.49000001 1.01 1.96
-0.49000001 1.01 2.0599999
-0.49000001 1.01 2.1600001
-0.38999999 0.91000003 -0.94
-0.38999999 0.91000003 -0.83999997
-0.38999999 0.91000003 -0.74000001
-0.38999999 0.91000003 -0.63999999
-0.38999999 0.91000003 -0.54000002
-0.38999999 0.91000003 -0.44
-0.38999999 0.91000003 -0.34
-0.38999999 0.91000003 -0.23999999
-0.38999999 0.91000003 -0.14
-0.38999999 0.91000003 -0.039999999
-0.38999999 0.91000003 0.059999999
-0.38999999 0.91000003 0.16
-0.38999999 0.91000003 0.25999999
-0.38999999 0.91000003 0.36000001
-0.38999999 0.91000003 0.46000001
-0.38999999 0.91000003 0.56
-0.38999999 0.91000003 0.66000003
-0.38999999 0.91000003 0.75999999
-0.38999999 0.91000003 0.86000001
-0.38999999 0.91000003 0.95999998
-0.38999999 0.91000003 1.0599999
-0.38999999 0.91000003 1.16
-0.38999999 0.91000003 1.26
-0.38999999 0.91000003 1.36
-0.38999999 0.91000003 1.46
-0.38999999 0.91000003 1.5599999
-0.38999999 0.91000003 1.66
-0.38999999 1.01 -0.94
-0.38999999 1.01 -0.83999997
-0.38999999 1.01 -0.74000001
-0.38999999 1.01 -0.63999999
-0.38999999 1.01 -0.54000002
-0.38999999 1.01 -0.44
-0.38999999 1.01 -0.34
-0.38999999 1.01 -0.23999999
-0.38999999 1.01 -0.14
-0.38999999 1.01 -0.039999999
-0.38999999 1.01 0.059999999
-0.38999999 1.01 0.16
-0.38999999 1.01 0.25999999
-0.38999999 1.01 0.36000001
-0.38999999 1.01 0.46000001
-0.38999999 1.01 0.56
-0.38999999 1.01 0.66000003
-0.38999999 1.01 0.75999999
-0.38999999 1.01 0.86000001
-0.38999999 1.01 0.95999998
-0.38999999 1.01 1.0599999
-0.38999999 1.01 1.16
-0.38999999 1.01 1.26
-0.38999999 1.01 1.36
-0.38999999 1.01 1.46
-0.38999999 1.01 1.5599999
-0.38999999 1.01 1.66
-0.38999999 1.01 1.76
-0.38999999 1.01 1.86
-0.38999999 1.01 1.96
-0.38999999 1.01 2.0599999
-0.38999999 1.01 2.1600001
-0.38999999 1.01 2.26
-0.38999999 1.01 2.3599999
-0.38999999 1.01 2.46
-0.38999999 1.01 2.5599999
-0.38999999 1.01 2.6600001
-0.38999999 1.01 2.76
-0.38999999 1.01 2.8599999
-2.49 2.4100001 -0.94
-2.49 2.4100001 -0.83999997
-2.49 2.4100001 -0.74000001
-2.49 2.4100001 -0.63999999
-2.49 2.4100001 -0.54000002
-2.49 2.4100001 -0.44
-2.49 2.4100001 -0.34
-2.49 2.4100001 -0.23999999
-2.49 2.4100001 -0.14
-2.49 2.4100001 -0.039999999
-2.49 2.4100001 0.059999999
-2.49 2.4100001 0.16
-2.49 2.4100001 0.25999999
-2.49 2.4100001 0.36000001
-2.49 2.4100001 0.46000001
-2.49 2.4100001 0.56
-2.49 2.4100001 0.66000003
-2.49 2.4100001 0.75999999
-2.49 2.4100001 0.86000001
-2.49 2.4100001 0.95999998
-2.49 2.4100001 1.0599999
-2.49 2.4100001 1.16
-2.49 2.51 -0.94
-2.49 2.51 -0.83999997
-2.49 2.51 -0.74000001
-2.49 2.51 -0.63999999
-2.49 2.51 -0.54000002
-2.49 2.51 -0.44
-2.49 2.51 -0.34
-2.49 2.51 -0.23999999
-2.49 2.51 -0.14
-2.49 2.51 -0.039999999
-2.49 2.51 0.059999999
-2.49 2.51 0.16
-2.49 2.51 0.25999999
-2.49 2.51 0.36000001
-2.49 2.51 0.46000001
-2.49 2.51 0.56
-2.49 2.51 0.66000003
-2.49 2.51 0.75999999
-2.49 2.51 0.86000001
-2.49 2.51 0.95999998
-2.49 2.51 1.0599999
-2.49 2.51 1.16
-2.3900001 2.4100001 -0.94
-2.3900001 2.4100001 -0.83999997
-2.3900001 2.4100001 -0.74000001
-2.3900001 2.4100001 -0.63999999
-2.3900001 2.4100001 -0.54000002
-2.3900001 2.4100001 -0.44
-2.3900001 2.4100001 -0.34
-2.3900001 2.4100001 -0.23999999
-2.3900001 2.4100001 -0.14
-2.3900001 2.4100001 -0.039999999
-2.3900001 2.4100001 0.059999999
-2.3900001 2.4100001 0.16
-2.3900001 2.4100001 0.25999999
-2.3900001 2.4100001 0.36000001
-2.3900001 2.4100001 0.46000001
-2.3900001 2.4100001 0.56
-2.3900001 2.4100001 0.66000003
-2.3900001 2.4100001 0.75999999
-2.3900001 2.4100001 0.86000001
-2.3900001 2.4100001 0.95999998
-2.3900001 2.4100001 1.0599999
-2.3900001 2.4100001 1.16
-2.3900001 2.4100001 1.26
-2.3900001 2.4100001 1.36
-2.1900001 -1.29 -0.94
-2.1900001 -1.29 -0.83999997
-2.1900001 -1.29 -0.74000001
-2.1900001 -1.29 -0.63999999
-2.1900001 -1.29 -0.54000002
-2.1900001 -1.29 -0.44
-2.1900001 -1.29 -0.34
-2.1900001 -1.29 -0.23999999
-2.1900001 -1.29 -0.14
-2.1900001 -1.29 -0.039999999
-2.1900001 -1.29 0.059999999
-2.1900001 -1.29 0.16
-2.1900001 -1.29 0.25999999
-2.1900001 -1.29 0.36000001
-2.1900001 -1.29 0.46000001
-2.1900001 -1.29 0.56
-2.1900001 -1.29 0.66000003
-2.1900001 -1.29 0.75999999
-2.1900001 -1.29 0.86000001
-2.1900001 -1.29 0.95999998
-2.1900001 -1.29 1.0599999
-2.1900001 -1.29 1.16
-2.1900001 -1.29 1.26
-2.1900001 -1.29 1.36
-2.1900001 -1.29 1.46
-2.1900001 -1.29 1.5599999
-2.1900001 -1.29 1.66
-2.1900001 -1.29 1.76
-2.1900001 -1.29 1.86
-2.1900001 -1.29 1.96
-2.1900001 -1.29 2.0599999
-2.1900001 -1.29 2.1600001
-2.1900001 -1.29 2.26
-2.1900001 -1.29 2.3599999
-2.1900001 -1.29 2.46
-2.1900001 -1.29 2.5599999
-2.1900001 -1.29 2.6600001
-2.1900001 -1.29 2.76
-2.1900001 -1.29 2.8599999
-2.1900001 -1.1900001 -0.94
-2.1900001 -1.1900001 -0.83999997
-2.1900001 -1.1900001 -0.74000001
-2.1900001 -1.1900001 -0.63999999
-2.1900001 -1.1900001 -0.54000002
-2.1900001 -1.1900001 -0.44
-2.1900001 -1.1900001 -0.34
-2.1900001 -1.1900001 -0.23999999
-2.1900001 -1.1900001 -0.14
-2.1900001 -1.1900001 -0.039999999
-2.1900001 -1.1900001 0.059999999
-2.1900001 -1.1900001 0.16
-2.1900001 -1.1900001 0.25999999
-2.1900001 -1.1900001 0.36000001
-2.1900001 -1.1900001 0.46000001
-2.1900001 -1.1900001 0.56
-2.1900001 -1.1900001 0.66000003
-2.1900001 -1.1900001 0.75999999
-2.1900001 -1.1900001 0.86000001
-2.1900001 -1.1900001 0.95999998
-2.1900001 -1.1900001 1.0599999
-2.1900001 -1.1900001 1.16
-2.1900001 -1.1900001 1.26
-2.1900001 -1.1900001 1.36
-2.1900001 -1.1900001 1.46
-2.1900001 -1.1900001 1.5599999
-2.1900001 -1.1900001 1.66
-2.1900001 -1.1900001 1.76
-2.1900001 -1.1900001 1.86
-2.1900001 -1.1900001 1.96
-2.1900001 -1.1900001 2.0599999
-2.1900001 -1.1900001 2.1600001
-2.1900001 -1.1900001 2.26
-2.1900001 -1.1900001 2.3599999
-2.1900001 -1.1900001 2.46
-2.1900001 -1.1900001 2.5599999
-2.1900001 -1.1900001 2.6600001
-2.1900001 -1.1900001 2.76
-2.1900001 -1.1900001 2.8599999
-2.0899999 -1.29 -0.94
-2.0899999 -1.29 -0.83999997
-2.0899999 -1.29 -0.74000001
-2.0899999 -1.29 -0.63999999
-2.0899999 -1.29 -0.54000002
-2.0899999 -1.29 -0.44
-2.0899999 -1.29 -0.34
-2.0899999 -1.29 -0.23999999
-2.0899999 -1.29 -0.14
-2.0899999 -1.29 -0.039999999
-2.0899999 -1.29 0.059999999
-2.0899999 -1.29 0.16
-2.0899999 -1.29 0.25999999
-2.0899999 -1.29 0.36000001
-2.0899999 -1.29 0.46000001
-2.0899999 -1.29 0.56
-2.0899999 -1.29 0.66000003
-2.0899999 -1.29 0.75999999
-2.0899999 -1.29 0.86000001
-2.0899999 -1.29 0.95999998
-2.0899999 -1.29 1.0599999
-2.0899999 -1.29 1.16
-2.0899999 -1.29 1.26
-2.0899999 -1.29 1.36
-2.0899999 -1.29 1.46
-2.0899999 -1.29 1.5599999
-2.0899999 -1.29 1.66
-2.0899999 -1.29 1.76
-2.0899999 -1.29 1.86
-2.0899999 -1.29 1.96
-2.0899999 -1.29 2.0599999
-2.0899999 -1.29 2.1600001
-2.0899999 -1.29 2.26
-2.0899999 -1.1900001 -0.94
-2.0899999 -1.1900001 -0.83999997
-2.0899999 -1.1900001 -0.74000001
-2.0899999 -1.1900001 -0.63999999
-2.0899999 -1.1900001 -0.54000002
-2.0899999 -1.1900001 -0.44
-2.0899999 -1.1900001 -0.34
-2.0899999 -1.1900001 -0.23999999
-2.0899999 -1.1900001 -0.14
-2.0899999 -1.1900001 -0.039999999
-2.0899999 -1.1900001 0.059999999
-2.0899999 -1.1900001 0.16
-2.0899999 -1.1900001 0.25999999
-2.0899999 -1.1900001 0.36000001
-2.0899999 -1.1900001 0.46000001
-2.0899999 -1.1900001 0.56
-2.0899999 -1.1900001 0.66000003
-2.0899999 -1.1900001 0.75999999
-2.0899999 -1.1900001 0.86000001
-2.0899999 -1.1900001 0.95999998
-2.0899999 -1.1900001 1.0599999
-2.0899999 -1.1900001 1.16
-2.0899999 -1.1900001 1.26
-2.0899999 -1.1900001 1.36
-2.0899999 -1.1900001 1.46
-2.0899999 -1.1900001 1.5599999
-2.0899999 -1.1900001 1.66
-2.0899999 -1.1900001 1.76
-2.0899999 -1.1900001 1.86
-2.0899999 -1.1900001 1.96
-2.0899999 -1.1900001 2.0599999
-2.0899999 -1.1900001 2.1600001
0.70999998 2.01 -0.94
0.70999998 2.01 -0.83999997
0.70999998 2.01 -0.74000001
0.70999998 2.01 -0.63999999
0.70999998 2.01 -0.54000002
0.70999998 2.01 -0.44
0.70999998 2.01 -0.34
0.70999998 2.01 -0.23999999
0.70999998 2.01 -0.14
0.70999998 2.01 -0.039999999
0.70999998 2.01 0.059999999
0.70999998 2.01 0.16
0.70999998 2.01 0.25999999
0.70999998 2.01 0.36000001
0.70999998 2.01 0.46000001
0.70999998 2.01 0.56
0.70999998 2.01 0.66000003
0.70999998 2.01 0.75999999
0.70999998 2.01 0.86000001
0.70999998 2.01 0.95999998
0.70999998 2.01 1.0599999
0.70999998 2.01 1.16
0.70999998 2.01 1.26
0.70999998 2.01 1.36
0.70999998 2.01 1.46
0.70999998 2.01 1.5599999
0.70999998 2.01 1.66
0.70999998 2.01 1.76
0.70999998 2.1099999 -0.94
0.70999998 2.1099999 -0.83999997
0.70999998 2.1099999 -0.74000001
0.70999998 2.1099999 -0.63999999
0.70999998 2.1099999 -0.54000002
0.70999998 2.1099999 -0.44
0.70999998 2.1099999 -0.34
0.70999998 2.1099999 -0.23999999
0.70999998 2.1099999 -0.14
0.70999998 2.1099999 -0.039999999
0.70999998 2.1099999 0.059999999
0.70999998 2.1099999 0.16
0.70999998 2.1099999 0.25999999
0.70999998 2.1099999 0.36000001
0.70999998 2.1099999 0.46000001
0.70999998 2.1099999 0.56
0.70999998 2.1099999 0.66000003
0.70999998 2.1099999 0.75999999
0.81 2.01 -0.94
0.81 2.01 -0.83999997
0.81 2.01 -0.74000001
0.81 2.01 -0.63999999
0.81 2.01 -0.54000002
0.81 2.01 -0.44
0.81 2.01 -0.34
0.81 2.01 -0.23999999
0.81 2.01 -0.14
0.81 2.01 -0.039999999
0.81 2.01 0.059999999
0.81 2.01 0.16
0.81 2.01 0.25999999
0.81 2.01 0.36000001
0.81 2.01 0.46000001
0.81 2.01 0.56
0.81 2.01 0.66000003
0.81 2.01 0.75999999
0.81 2.01 0.86000001
0.81 2.01 0.95999998
0.81 2.01 1.0599999
0.81 2.01 1.16
0.81 2.01 1.26
0.81 2.01 1.36
0.81 2.01 1.46
0.81 2.01 1.5599999
0.81 2.01 1.66
0.81 2.01 1.76
0.81 2.1099999 -0.94
0.81 2.1099999 -0.83999997
0.81 2.1099999 -0.74000001
0.81 2.1099999 -0.63999999
0.81 2.1099999 -0.54000002
0.81 2.1099999 -0.44
0.81 2.1099999 -0.34
0.81 2.1099999 -0.23999999
0.81 2.1099999 -0.14
0.81 2.1099999 -0.039999999
0.81 2.1099999 0.059999999
0.81 2.1099999 0.16
0.81 2.1099999 0.25999999
0.81 2.1099999 0.36000001
0.81 2.1099999 0.46000001
0.81 2.1099999 0.56
0.81 2.1099999 0.66000003
0.81 2.1099999 0.75999999
0.81 2.1099999 0.86000001
0.81 2.1099999 0.95999998
0.81 2.1099999 1.0599999
0.81 2.1099999 1.16
0.81 2.1099999 1.26
0.81 2.1099999 1.36
0.81 2.1099999 1.46
0.81 2.1099999 1.5599999
0.81 2.1099999 1.66
0.81 2.1099999 1.76
0.81 2.1099999 1.86
0.81 2.1099999 1.96
0.81 2.1099999 2.0599999
0.81 2.1099999 2.1600001
0.81 2.1099999 2.26
0.81 2.1099999 2.3599999
0.81 2.1099999 2.46
1.3099999 -1.29 -0.94
1.3099999 -1.29 -0.83999997
1.3099999 -1.29 -0.74000001
1.3099999 -1.29 -0.63999999
1.3099999 -1.29 -0.54000002
1.3099999 -1.29 -0.44
1.3099999 -1.29 -0.34
1.3099999 -1.29 -0.23999999
1.3099999 -1.29 -0.14
1.3099999 -1.29 -0.039999999
1.3099999 -1.29 0.059999999
1.3099999 -1.29 0.16
1.3099999 -1.29 0.25999999
1.3099999 -1.29 0.36000001
1.3099999 -1.29 0.46000001
1.3099999 -1.29 0.56
1.3099999 -1.29 0.66000003
1.3099999 -1.29 0.75999999
1.3099999 -1.29 0.86000001
1.3099999 -1.29 0.95999998
1.3099999 -1.29 1.0599999
1.3099999 -1.29 1.16
1.3099999 -1.29 1.26
1.3099999 -1.29 1.36
1.3099999 -1.29 1.46
1.3099999 -1.29 1.5599999
1.3099999 -1.29 1.66
1.3099999 -1.29 1.76
1.3099999 -1.29 1.86
1.3099999 -1.29 1.96
1.3099999 -1.29 2.0599999
1.3099999 -1.29 2.1600001
1.3099999 -1.29 2.26
1.3099999 -1.1900001 -0.94
1.3099999 -1.1900001 -0.83999997
1.3099999 -1.1900001 -0.74000001
1.3099999 -1.1900001 -0.63999999
1.3099999 -1.1900001 -0.54000002
1.3099999 -1.1900001 -0.44
1.3099999 -1.1900001 -0.34
1.3099999 -1.1900001 -0.23999999
1.3099999 -1.1900001 -0.14
1.3099999 -1.1900001 -0.039999999
1.3099999 -1.1900001 0.059999999
1.3099999 -1.1900001 0.16
1.3099999 -1.1900001 0.25999999
1.3099999 -1.1900001 0.36000001
1.3099999 -1.1900001 0.46000001
1.3099999 -1.1900001 0.56
1.3099999 -1.1900001 0.66000003
1.3099999 -1.1900001 0.75999999
1.3099999 -1.1900001 0.86000001
1.41 -1.29 -0.94
1.41 -1.29 -0.83999997
1.41 -1.29 -0.74000001
1.41 -1.29 -0.63999999
1.41 -1.29 -0.54000002
1.41 -1.29 -0.44
1.41 -1.29 -0.34
1.41 -1.29 -0.23999999
1.41 -1.29 -0.14
1.41 -1.29 -0.039999999
1.41 -1.29 0.059999999
1.41 -1.29 0.16
1.41 -1.29 0.25999999
1.41 -1.29 0.36000001
1.41 -1.29 0.46000001
1.41 -1.29 0.56
1.41 -1.29 0.66000003
1.41 -1.29 0.75999999
1.41 -1.29 0.86000001
1.41 -1.29 0.95999998
1.41 -1.29 1.0599999
1.41 -1.29 1.16
1.41 -1.29 1.26
1.41 -1.29 1.36
1.41 -1.29 1.46
1.41 -1.29 1.5599999
1.41 -1.29 1.66
1.41 -1.29 1.76
1.41 -1.29 1.86
1.41 -1.29 1.96
1.41 -1.29 2.0599999
1.41 -1.29 2.1600001
1.41 -1.29 2.26
1.41 -1.1900001 -0.94
1.41 -1.1900001 -0.83999997
1.41 -1.1900001 -0.74000001
1.41 -1.1900001 -0.63999999
1.41 -1.1900001 -0.54000002
1.41 -1.1900001 -0.44
1.41 -1.1900001 -0.34
1.41 -1.1900001 -0.23999999
1.41 -1.1900001 -0.14
1.41 -1.1900001 -0.039999999
1.41 -1.1900001 0.059999999
1.41 -1.1900001 0.16
1.41 -1.1900001 0.25999999
1.41 -1.1900001 0.36000001
1.41 -1.1900001 0.46000001
1.41 -1.1900001 0.56
1.41 -1.1900001 0.66000003
1.41 -1.1900001 0.75999999
1.41 -1.1900001 0.86000001
1.41 -1.1900001 0.95999998
1.41 -1.1900001 1.0599999
1.41 -1.1900001 1.16
1.41 -1.1900001 1.26
1.41 -1.1900001 1.36
1.41 -1.1900001 1.46
1.41 -1.1900001 1.5599999
-0.69 -0.88999999 -0.94
-0.69 -0.88999999 -0.83999997
-0.69 -0.88999999 -0.74000001
-0.69 -0.88999999 -0.63999999
-0.69 -0.88999999 -0.54000002
-0.69 -0.88999999 -0.44
-0.69 -0.88999999 -0.34
-0.69 -0.88999999 -0.23999999
-0.69 -0.88999999 -0.14
-0.69 -0.88999999 -0.039999999
-0.69 -0.88999999 0.059999999
-0.69 -0.88999999 0.16
-0.69 -0.88999999 0.25999999
-0.69 -0.88999999 0.36000001
-0.69 -0.88999999 0.46000001
-0.69 -0.88999999 0.56
-0.69 -0.88999999 0.66000003
-0.69 -0.88999999 0.75999999
-0.69 -0.88999999 0.86000001
-0.69 -0.88999999 0.95999998
-0.69 -0.88999999 1.0599999
-0.69 -0.88999999 1.16
-0.69 -0.88999999 1.26
-0.69 -0.88999999 1.36
-0.69 -0.88999999 1.46
-0.69 -0.88999999 1.5599999
-0.69 -0.88999999 1.66
-0.69 -0.88999999 1.76
-0.69 -0.88999999 1.86
-0.69 -0.88999999 1.96
-0.69 -0.88999999 2.0599999
-0.69 -0.88999999 2.1600001
-0.69 -0.88999999 2.26
-0.69 -0.88999999 2.3599999
-0.69 -0.79000002 -0.94
-0.69 -0.79000002 -0.83999997
-0.69 -0.79000002 -0.74000001
-0.69 -0.79000002 -0.63999999
-0.69 -0.79000002 -0.54000002
-0.69 -0.79000002 -0.44
-0.69 -0.79000002 -0.34
-0.69 -0.79000002 -0.23999999
-0.69 -0.79000002 -0.14
-0.69 -0.79000002 -0.039999999
-0.69 -0.79000002 0.059999999
-0.69 -0.79000002 0.16
-0.69 -0.79000002 0.25999999
-0.69 -0.79000002 0.36000001
-0.69 -0.79000002 0.46000001
-0.69 -0.79000002 0.56
-0.69 -0.79000002 0.66000003
-0.69 -0.79000002 0.75999999
-0.69 -0.79000002 0.86000001
-0.69 -0.79000002 0.95999998
-0.69 -0.79000002 1.0599999
-0.69 -0.79000002 1.16
-0.69 -0.79000002 1.26
-0.69 -0.79000002 1.36
-0.69 -0.79000002 1.46
-0.69 -0.79000002 1.5599999
-0.69 -0.79000002 1.66
-0.69 -0.79000002 1.76
-0.69 -0.79000002 1.86
-0.69 -0.79000002 1.96
-0.69 -0.79000002 2.0599999
-0.69 -0.79000002 2.1600001
-0.69 -0.79000002 2.26
-0.69 -0.79000002 2.3599999
-0.69 -0.79000002 2.46
-0.69 -0.79000002 2.5599999
-0.69 -0.79000002 2.6600001
-0.69 -0.79000002 2.76
-0.69 -0.79000002 2.8599999
-0.58999997 -0.88999999 -0.94
-0.58999997 -0.88999999 -0.83999997
-0.58999997 -0.88999999 -0.74000001
-0.58999997 -0.88999999 -0.63999999
-0.58999997 -0.88999999 -0.54000002
-0.58999997 -0.88999999 -0.44
-0.58999997 -0.88999999 -0.34
-0.58999997 -0.88999999 -0.23999999
-0.58999997 -0.88999999 -0.14
-0.58999997 -0.88999999 -0.039999999
-0.58999997 -0.88999999 0.059999999
-0.58999997 -0.88999999 0.16
-0.58999997 -0.88999999 0.25999999
-0.58999997 -0.88999999 0.36000001
-0.58999997 -0.88999999 0.46000001
-0.58999997 -0.88999999 0.56
-0.58999997 -0.88999999 0.66000003
-0.58999997 -0.88999999 0.75999999
-0.58999997 -0.88999999 0.86000001
-0.58999997 -0.88999999 0.95999998
-0.58999997 -0.88999999 1.0599999
-0.58999997 -0.88999999 1.16
-0.58999997 -0.88999999 1.26
-0.58999997 -0.88999999 1.36
-0.58999997 -0.88999999 1.46
-0.58999997 -0.88999999 1.5599999
-0.58999997 -0.79000002 -0.94
-0.58999997 -0.79000002 -0.83999997
-0.58999997 -0.79000002 -0.74000001
-0.58999997 -0.79000002 -0.63999999
-0.58999997 -0.79000002 -0.54000002
-0.58999997 -0.79000002 -0.44
-0.58999997 -0.79000002 -0.34
-0.58999997 -0.79000002 -0.23999999
-0.58999997 -0.79000002 -0.14
-0.58999997 -0.79000002 -0.039999999
-0.58999997 -0.79000002 0.059999999
-0.58999997 -0.79000002 0.16
-0.58999997 -0.79000002 0.25999999
-0.58999997 -0.79000002 0.36000001
-0.58999997 -0.79000002 0.46000001
-0.58999997 -0.79000002 0.56
-0.58999997 -0.79000002 0.66000003
-0.58999997 -0.79000002 0.75999999
-0.58999997 -0.79000002 0.86000001
-0.58999997 -0.79000002 0.95999998
-0.58999997 -0.79000002 1.0599999
-0.58999997 -0.79000002 1.16
-0.58999997 -0.79000002 1.26
-0.58999997 -0.79000002 1.36
-0.58999997 -0.79000002 1.46
-0.58999997 -0.79000002 1.5599999
-0.58999997 -0.79000002 1.66
-0.58999997 -0.79000002 1.76
-1.79 0.61000001 -0.94
-1.79 0.61000001 -0.83999997
-1.79 0.61000001 -0.74000001
-1.79 0.61000001 -0.63999999
-1.79 0.61000001 -0.54000002
-1.79 0.61000001 -0.44
-1.79 0.61000001 -0.34
-1.79 0.61000001 -0.23999999
-1.79 0.61000001 -0.14
-1.79 0.61000001 -0.039999999
-1.79 0.61000001 0.059999999
-1.79 0.61000001 0.16
-1.79 0.61000001 0.25999999
-1.79 0.61000001 0.36000001
-1.79 0.61000001 0.46000001
-1.79 0.61000001 0.56
-1.79 0.61000001 0.66000003
-1.79 0.61000001 0.75999999
-1.79 0.61000001 0.86000001
-1.79 0.61000001 0.95999998
-1.79 0.61000001 1.0599999
-1.79 0.61000001 1.16
-1.79 0.61000001 1.26
-1.79 0.61000001 1.36
-1.79 0.61000001 1.46
-1.79 0.61000001 1.5599999
-1.79 0.61000001 1.66
-1.79 0.61000001 1.76
-1.79 0.61000001 1.86
-1.79 0.61000001 1.96
-1.79 0.61000001 2.0599999
-1.79 0.70999998 -0.94
-1.79 0.70999998 -0.83999997
-1.79 0.70999998 -0.74000001
-1.79 0.70999998 -0.63999999
-1.79 0.70999998 -0.54000002
-1.79 0.70999998 -0.44
-1.79 0.70999998 -0.34
-1.79 0.70999998 -0.23999999
-1.79 0.70999998 -0.14
-1.79 0.70999998 -0.039999999
-1.79 0.70999998 0.059999999
-1.79 0.70999998 0.16
-1.79 0.70999998 0.25999999
-1.79 0.70999998 0.36000001
-1.79 0.70999998 0.46000001
-1.79 0.70999998 0.56
-1.79 0.70999998 0.66000003
-1.79 0.70999998 0.75999999
-1.79 0.70999998 0.86000001
-1.79 0.70999998 0.95999998
-1.79 0.70999998 1.0599999
-1.79 0.70999998 1.16
-1.79 0.70999998 1.26
-1.79 0.70999998 1.36
-1.79 0.70999998 1.46
-1.79 0.70999998 1.5599999
-1.79 0.70999998 1.66
-1.79 0.70999998 1.76
-1.79 0.70999998 1.86
-1.79 0.70999998 1.96
-1.79 0.70999998 2.0599999
-1.79 0.70999998 2.1600001
-1.79 0.70999998 2.26
-1.79 0.70999998 2.3599999
-1.79 0.70999998 2.46
-1.79 0.70999998 2.5599999
-1.79 0.70999998 2.6600001
-1.79 0.70999998 2.76
-1.79 0.70999998 2.8599999
-1.6900001 0.61000001 -0.94
-1.6900001 0.61000001 -0.83999997
-1.6900001 0.61000001 -0.74000001
-1.6900001 0.61000001 -0.63999999
-1.6900001 0.61000001 -0.54000002
-1.6900001 0.61000001 -0.44
-1.6900001 0.61000001 -0.34
-1.6900001 0.61000001 -0.23999999
-1.6900001 0.61000001 -0.14
-1.6900001 0.61000001 -0.039999999
-1.6900001 0.61000001 0.059999999
-1.6900001 0.61000001 0.16
-1.6900001 0.61000001 0.25999999
-1.6900001 0.61000001 0.36000001
-1.6900001 0.61000001 0.46000001
-1.6900001 0.61000001 0.56
-1.6900001 0.61000001 0.66000003
-1.6900001 0.61000001 0.75999999
-1.6900001 0.61000001 0.86000001
-1.6900001 0.61000001 0.95999998
-1.6900001 0.61000001 1.0599999
-1.6900001 0.61000001 1.16
-1.6900001 0.61000001 1.26
-1.6900001 0.61000001 1.36
-1.6900001 0.61000001 1.46
-1.6900001 0.61000001 1.5599999
-1.6900001 0.70999998 -0.94
-1.6900001 0.70999998 -0.83999997
-1.6900001 0.70999998 -0.74000001
-1.6900001 0.70999998 -0.63999999
-1.6900001 0.70999998 -0.54000002
-1.6900001 0.70999998 -0.44
-1.6900001 0.70999998 -0.34
-1.6900001 0.70999998 -0.23999999
-1.6900001 0.70999998 -0.14
-1.6900001 0.70999998 -0.039999999
-1.6900001 0.70999998 0.059999999
-1.6900001 0.70999998 0.16
-1.6900001 0.70999998 0.25999999
-1.6900001 0.70999998 0.36000001
-1.6900001 0.70999998 0.46000001
-1.6900001 0.70999998 0.56
-1.6900001 0.70999998 0.66000003
-1.6900001 0.70999998 0.75999999
-1.6900001 0.70999998 0.86000001
-1.6900001 0.70999998 0.95999998
0.81 0.20999999 -0.94
0.81 0.20999999 -0.83999997
0.81 0.20999999 -0.74000001
0.81 0.20999999 -0.63999999
0.81 0.20999999 -0.54000002
0.81 0.20999999 -0.44
0.81 0.20999999 -0.34
0.81 0.20999999 -0.23999999
0.81 0.20999999 -0.14
0.81 0.20999999 -0.039999999
0.81 0.20999999 0.059999999
0.81 0.20999999 0.16
0.81 0.20999999 0.25999999
0.81 0.20999999 0.36000001
0.81 0.20999999 0.46000001
0.81 0.20999999 0.56
0.81 0.20999999 0.66000003
0.81 0.20999999 0.75999999
0.81 0.20999999 0.86000001
0.81 0.20999999 0.95999998
0.81 0.20999999 1.0599999
0.81 0.20999999 1.16
0.81 0.20999999 1.26
0.81 0.20999999 1.36
0.81 0.20999999 1.46
0.81 0.20999999 1.5599999
0.81 0.20999999 1.66
0.81 0.20999999 1.76
0.81 0.31 -0.94
0.81 0.31 -0.83999997
0.81 0.31 -0.74000001
0.81 0.31 -0.63999999
0.81 0.31 -0.54000002
0.81 0.31 -0.44
0.81 0.31 -0.34
0.81 0.31 -0.23999999
0.81 0.31 -0.14
0.81 0.31 -0.039999999
0.81 0.31 0.059999999
0.81 0.31 0.16
0.81 0.31 0.25999999
0.81 0.31 0.36000001
0.81 0.31 0.46000001
0.81 0.31 0.56
0.81 0.31 0.66000003
0.81 0.31 0.75999999
0.81 0.31 0.86000001
0.81 0.31 0.95999998
0.81 0.31 1.0599999
0.81 0.31 1.16
0.81 0.31 1.26
0.81 0.31 1.36
0.81 0.31 1.46
0.81 0.31 1.5599999
0.81 0.31 1.66
0.81 0.31 1.76
0.81 0.31 1.86
0.91000003 0.20999999 -0.94
0.91000003 0.20999999 -0.83999997
0.91000003 0.20999999 -0.74000001
0.91000003 0.20999999 -0.63999999
0.91000003 0.20999999 -0.54000002
0.91000003 0.20999999 -0.44
0.91000003 0.20999999 -0.34
0.91000003 0.20999999 -0.23999999
0.91000003 0.20999999 -0.14
0.91000003 0.20999999 -0.039999999
0.91000003 0.20999999 0.059999999
0.91000003 0.20999999 0.16
0.91000003 0.20999999 0.25999999
0.91000003 0.20999999 0.36000001
0.91000003 0.20999999 0.46000001
0.91000003 0.20999999 0.56
0.91000003 0.20999999 0.66000003
0.91000003 0.20999999 0.75999999
0.91000003 0.20999999 0.86000001
0.91000003 0.31 -0.94
0.91000003 0.31 -0.83999997
0.91000003 0.31 -0.74000001
0.91000003 0.31 -0.63999999
0.91000003 0.31 -0.54000002
0.91000003 0.31 -0.44
0.91000003 0.31 -0.34
0.91000003 0.31 -0.23999999
0.91000003 0.31 -0.14
0.91000003 0.31 -0.039999999
0.91000003 0.31 0.059999999
0.91000003 0.31 0.16
0.91000003 0.31 0.25999999
0.91000003 0.31 0.36000001
0.91000003 0.31 0.46000001
0.91000003 0.31 0.56
0.91000003 0.31 0.66000003
0.91000003 0.31 0.75999999
0.91000003 0.31 0.86000001
0.91000003 0.31 0.95999998
0.91000003 0.31 1.0599999
0.91000003 0.31 1.16
0.91000003 0.31 1.26
0.91000003 0.31 1.36
0.91000003 0.31 1.46
0.91000003 0.31 1.5599999
0.91000003 0.31 1.66
0.91000003 0.31 1.76
0.91000003 0.31 1.86
0.91000003 0.31 1.96
-1.39 1.91 -0.94
-1.39 1.91 -0.83999997
-1.39 1.91 -0.74000001
-1.39 1.91 -0.63999999
-1.39 1.91 -0.54000002
-1.39 1.91 -0.44
-1.39 1.91 -0.34
-1.39 1.91 -0.23999999
-1.39 1.91 -0.14
-1.39 1.91 -0.039999999
-1.39 1.91 0.059999999
-1.39 1.91 0.16
-1.39 1.91 0.25999999
-1.39 1.91 0.36000001
-1.39 1.91 0.46000001
-1.39 1.91 0.56
-1.39 1.91 0.66000003
-1.39 1.91 0.75999999
-1.39 1.91 0.86000001
-1.39 1.91 0.95999998
-1.39 1.91 1.0599999
-1.39 1.91 1.16
-1.39 1.91 1.26
-1.39 1.91 1.36
-1.39 1.91 1.46
-1.39 1.91 1.5599999
-1.39 1.91 1.66
-1.39 1.91 1.76
-1.39 1.91 1.86
-1.39 1.91 1.96
-1.39 1.91 2.0599999
-1.39 1.91 2.1600001
-1.39 1.91 2.26
-1.39 1.91 2.3599999
-1.39 1.91 2.46
-1.39 1.91 2.5599999
-1.39 1.91 2.6600001
-1.39 2.01 -0.94
-1.39 2.01 -0.83999997
-1.39 2.01 -0.74000001
-1.39 2.01 -0.63999999
-1.39 2.01 -0.54000002
-1.39 2.01 -0.44
-1.39 2.01 -0.34
-1.39 2.01 -0.23999999
-1.39 2.01 -0.14
-1.39 2.01 -0.039999999
-1.39 2.01 0.059999999
-1.39 2.01 0.16
-1.39 2.01 0.25999999
-1.39 2.01 0.36000001
-1.39 2.01 0.46000001
-1.39 2.01 0.56
-1.39 2.01 0.66000003
-1.39 2.01 0.75999999
-1.39 2.01 0.86000001
-1.39 2.01 0.95999998
-1.39 2.01 1.0599999
-1.39 2.01 1.16
-1.39 2.01 1.26
-1.39 2.01 1.36
-1.39 2.01 1.46
-1.39 2.01 1.5599999
-1.39 2.01 1.66
-1.39 2.01 1.76
-1.39 2.01 1.86
-1.39 2.01 1.96
-1.39 2.01 2.0599999
-1.39 2.01 2.1600001
-1.39 2.01 2.26
-1.39 2.01 2.3599999
-1.39 2.01 2.46
-1.39 2.01 2.5599999
-1.39 2.01 2.6600001
-1.39 2.01 2.76
-1.39 2.01 2.8599999
-1.29 1.91 -0.94
-1.29 1.91 -0.83999997
-1.29 1.91 -0.74000001
-1.29 1.91 -0.63999999
-1.29 1.91 -0.54000002
-1.29 1.91 -0.44
-1.29 1.91 -0.34
-1.29 1.91 -0.23999999
-1.29 1.91 -0.14
-1.29 1.91 -0.039999999
-1.29 1.91 0.059999999
-1.29 1.91 0.16
-1.29 1.91 0.25999999
-1.29 1.91 0.36000001
-1.29 1.91 0.46000001
-1.29 1.91 0.56
-1.29 1.91 0.66000003
-1.29 1.91 0.75999999
-1.29 1.91 0.86000001
-1.29 1.91 0.95999998
-1.29 1.91 1.0599999
-1.29 1.91 1.16
-1.29 1.91 1.26
-1.29 1.91 1.36
-1.29 1.91 1.46
-1.29 1.91 1.5599999
-1.29 1.91 1.66
-1.29 1.91 1.76
-1.29 1.91 1.86
-1.29 1.91 1.96
-1.29 1.91 2.0599999
-1.29 1.91 2.1600001
-1.29 1.91 2.26
-1.29 1.91 2.3599999
-1.29 2.01 -0.94
-1.29 2.01 -0.83999997
-1.29 2.01 -0.74000001
-1.29 2.01 -0.63999999
-1.29 2.01 -0.54000002
-1.29 2.01 -0.44
-1.29 2.01 -0.34
-1.29 2.01 -0.23999999
-1.29 2.01 -0.14
-1.29 2.01 -0.039999999
-1.29 2.01 0.059999999
-1.29 2.01 0.16
-1.29 2.01 0.25999999
-1.29 2.01 0.36000001
-1.29 2.01 0.46000001
-1.29 2.01 0.56
-1.29 2.01 0.66000003
-1.29 2.01 0.75999999
-1.29 2.01 0.86000001
-1.29 2.01 0.95999998
0.31 -1.49 -0.94
0.31 -1.49 -0.83999997
0.31 -1.49 -0.74000001
0.31 -1.49 -0.63999999
0.31 -1.49 -0.54000002
0.31 -1.49 -0.44
0.31 -1.49 -0.34
0.31 -1.49 -0.23999999
0.31 -1.49 -0.14
0.31 -1.49 -0.039999999
0.31 -1.49 0.059999999
0.31 -1.49 0.16
0.31 -1.49 0.25999999
0.31 -1.49 0.36000001
0.31 -1.49 0.46000001
0.31 -1.49 0.56
0.31 -1.49 0.66000003
0.31 -1.49 0.75999999
0.31 -1.49 0.86000001
0.31 -1.49 0.95999998
0.31 -1.49 1.0599999
0.31 -1.49 1.16
0.31 -1.49 1.26
0.31 -1.49 1.36
0.31 -1.49 1.46
0.31 -1.49 1.5599999
0.31 -1.49 1.66
0.31 -1.49 1.76
0.31 -1.49 1.86
0.31 -1.49 1.96
0.31 -1.49 2.0599999
0.31 -1.49 2.1600001
0.31 -1.49 2.26
0.31 -1.49 2.3599999
0.31 -1.49 2.46
0.31 -1.49 2.5599999
0.31 -1.39 -0.94
0.31 -1.39 -0.83999997
0.31 -1.39 -0.74000001
0.31 -1.39 -0.63999999
0.31 -1.39 -0.54000002
0.31 -1.39 -0.44
0.31 -1.39 -0.34
0.31 -1.39 -0.23999999
0.31 -1.39 -0.14
0.31 -1.39 -0.039999999
0.31 -1.39 0.059999999
0.31 -1.39 0.16
0.31 -1.39 0.25999999
0.31 -1.39 0.36000001
0.31 -1.39 0.46000001
0.31 -1.39 0.56
0.31 -1.39 0.66000003
0.31 -1.39 0.75999999
0.31 -1.39 0.86000001
0.31 -1.39 0.95999998
0.31 -1.39 1.0599999
0.31 -1.39 1.16
0.41 -1.49 -0.94
0.41 -1.49 -0.83999997
0.41 -1.49 -0.74000001
0.41 -1.49 -0.63999999
0.41 -1.49 -0.54000002
0.41 -1.49 -0.44
0.41 -1.49 -0.34
0.41 -1.49 -0.23999999
0.41 -1.49 -0.14
0.41 -1.49 -0.039999999
0.41 -1.49 0.059999999
0.41 -1.49 0.16
0.41 -1.49 0.25999999
0.41 -1.49 0.36000001
0.41 -1.49 0.46000001
0.41 -1.49 0.56
0.41 -1.49 0.66000003
0.41 -1.49 0.75999999
0.41 -1.49 0.86000001
0.41 -1.49 0.95999998
0.41 -1.49 1.0599999
0.41 -1.39 -0.94
0.41 -1.39 -0.83999997
0.41 -1.39 -0.74000001
0.41 -1.39 -0.63999999
0.41 -1.39 -0.54000002
0.41 -1.39 -0.44
0.41 -1.39 -0.34
0.41 -1.39 -0.23999999
0.41 -1.39 -0.14
0.41 -1.39 -0.039999999
0.41 -1.39 0.059999999
0.41 -1.39 0.16
0.41 -1.39 0.25999999
0.41 -1.39 0.36000001
0.41 -1.39 0.46000001
0.41 -1.39 0.56
0.41 -1.39 0.66000003
0.41 -1.39 0.75999999
0.41 -1.39 0.86000001
0.41 -1.39 0.95999998
0.41 -1.39 1.0599999
0.41 -1.39 1.16
0.41 -1.39 1.26
0.41 -1.39 1.36
0.41 -1.39 1.46
0.41 -1.39 1.5599999
0.41 -1.39 1.66
2.21 -0.79000002 -0.94
2.21 -0.79000002 -0.83999997
2.21 -0.79000002 -0.74000001
2.21 -0.79000002 -0.63999999
2.21 -0.79000002 -0.54000002
2.21 -0.79000002 -0.44
2.21 -0.79000002 -0.34
2.21 -0.79000002 -0.23999999
2.21 -0.79000002 -0.14
2.21 -0.79000002 -0.039999999
2.21 -0.79000002 0.059999999
2.21 -0.79000002 0.16
2.21 -0.79000002 0.25999999
2.21 -0.79000002 0.36000001
2.21 -0.79000002 0.46000001
2.21 -0.79000002 0.56
2.21 -0.79000002 0.66000003
2.21 -0.79000002 0.75999999
2.21 -0.79000002 0.86000001
2.21 -0.79000002 0.95999998
2.21 -0.79000002 1.0599999
2.21 -0.79000002 1.16
2.21 -0.79000002 1.26
2.21 -0.79000002 1.36
2.21 -0.79000002 1.46
2.21 -0.79000002 1.5599999
2.21 -0.79000002 1.66
2.21 -0.79000002 1.76
2.21 -0.79000002 1.86
2.21 -0.79000002 1.96
2.21 -0.79000002 2.0599999
2.21 -0.79000002 2.1600001
2.21 -0.79000002 2.26
2.21 -0.79000002 2.3599999
2.21 -0.79000002 2.46
2.21 -0.79000002 2.5599999
2.21 -0.69 -0.94
2.21 -0.69 -0.83999997
2.21 -0.69 -0.74000001
2.21 -0.69 -0.63999999
2.21 -0.69 -0.54000002
2.21 -0.69 -0.44
2.21 -0.69 -0.34
2.21 -0.69 -0.23999999
2.21 -0.69 -0.14
2.21 -0.69 -0.039999999
2.21 -0.69 0.059999999
2.21 -0.69 0.16
2.21 -0.69 0.25999999
2.21 -0.69 0.36000001
2.21 -0.69 0.46000001
2.21 -0.69 0.56
2.21 -0.69 0.66000003
2.21 -0.69 0.75999999
2.21 -0.69 0.86000001
2.21 -0.69 0.95999998
2.21 -0.69 1.0599999
2.21 -0.69 1.16
2.21 -0.69 1.26
2.21 -0.69 1.36
2.21 -0.69 1.46
2.21 -0.69 1.5599999
2.21 -0.69 1.66
2.21 -0.69 1.76
2.3099999 -0.79000002 -0.94
2.3099999 -0.79000002 -0.83999997
2.3099999 -0.79000002 -0.74000001
2.3099999 -0.79000002 -0.63999999
2.3099999 -0.79000002 -0.54000002
2.3099999 -0.79000002 -0.44
2.3099999 -0.79000002 -0.34
2.3099999 -0.79000002 -0.23999999
2.3099999 -0.79000002 -0.14
2.3099999 -0.79000002 -0.039999999
2.3099999 -0.79000002 0.059999999
2.3099999 -0.79000002 0.16
2.3099999 -0.79000002 0.25999999
2.3099999 -0.79000002 0.36000001
2.3099999 -0.79000002 0.46000001
2.3099999 -0.79000002 0.56
2.3099999 -0.79000002 0.66000003
2.3099999 -0.79000002 0.75999999
2.3099999 -0.79000002 0.86000001
2.3099999 -0.79000002 0.95999998
2.3099999 -0.79000002 1.0599999
2.3099999 -0.79000002 1.16
2.3099999 -0.79000002 1.26
2.3099999 -0.79000002 1.36
2.3099999 -0.79000002 1.46
2.3099999 -0.79000002 1.5599999
2.3099999 -0.79000002 1.66
2.3099999 -0.79000002 1.76
2.3099999 -0.79000002 1.86
2.3099999 -0.79000002 1.96
2.3099999 -0.79000002 2.0599999
2.3099999 -0.79000002 2.1600001
2.3099999 -0.79000002 2.26
2.3099999 -0.79000002 2.3599999
2.3099999 -0.79000002 2.46
2.3099999 -0.79000002 2.5599999
2.3099999 -0.79000002 2.6600001
2.3099999 -0.79000002 2.76
2.3099999 -0.79000002 2.8599999
2.3099999 -0.69 -0.94
2.3099999 -0.69 -0.83999997
2.3099999 -0.69 -0.74000001
2.3099999 -0.69 -0.63999999
2.3099999 -0.69 -0.54000002
2.3099999 -0.69 -0.44
2.3099999 -0.69 -0.34
2.3099999 -0.69 -0.23999999
2.3099999 -0.69 -0.14
2.3099999 -0.69 -0.039999999
2.3099999 -0.69 0.059999999
2.3099999 -0.69 0.16
2.3099999 -0.69 0.25999999
2.3099999 -0.69 0.36000001
2.3099999 -0.69 0.46000001
2.3099999 -0.69 0.56
2.3099999 -0.69 0.66000003
2.3099999 -0.69 0.75999999
2.3099999 -0.69 0.86000001
2.3099999 -0.69 0.95999998
2.3099999 -0.69 1.0599999
2.3099999 -0.69 1.16
2.3099999 -0.69 1.26
2.3099999 -0.69 1.36
2.3099999 -0.69 1.46
2.3099999 -0.69 1.5599999
2.3099999 -0.69 1.66
2.3099999 -0.69 1.76
2.3099999 -0.69 1.86
2.3099999 -0.69 1.96
2.3099999 -0.69 2.0599999
2.3099999 -0.69 2.1600001
2.3099999 -0.69 2.26
2.3099999 -0.69 2.3599999
2.3099999 -0.69 2.46
-2.0899999 1.41 -0.94
-2.0899999 1.41 -0.83999997
-2.0899999 1.41 -0.74000001
-2.0899999 1.41 -0.63999999
-2.0899999 1.41 -0.54000002
-2.0899999 1.41 -0.44
-2.0899999 1.41 -0.34
-2.0899999 1.41 -0.23999999
-2.0899999 1.41 -0.14
-2.0899999 1.41 -0.039999999
-2.0899999 1.41 0.059999999
-2.0899999 1.41 0.16
-2.0899999 1.41 0.25999999
-2.0899999 1.41 0.36000001
-2.0899999 1.41 0.46000001
-2.0899999 1.41 0.56
-2.0899999 1.41 0.66000003
-2.0899999 1.41 0.75999999
-2.0899999 1.41 0.86000001
-2.0899999 1.41 0.95999998
-2.0899999 1.41 1.0599999
-2.0899999 1.41 1.16
-2.0899999 1.41 1.26
-2.0899999 1.41 1.36
-2.0899999 1.41 1.46
-2.0899999 1.41 1.5599999
-2.0899999 1.41 1.66
-2.0899999 1.41 1.76
-2.0899999 1.41 1.86
-2.0899999 1.41 1.96
-2.0899999 1.41 2.0599999
-2.0899999 1.41 2.1600001
-2.0899999 1.41 2.26
-2.0899999 1.51 -0.94
-2.0899999 1.51 -0.83999997
-2.0899999 1.51 -0.74000001
-2.0899999 1.51 -0.63999999
-2.0899999 1.51 -0.54000002
-2.0899999 1.51 -0.44
-2.0899999 1.51 -0.34
-2.0899999 1.51 -0.23999999
-2.0899999 1.51 -0.14
-2.0899999 1.51 -0.039999999
-2.0899999 1.51 0.059999999
-2.0899999 1.51 0.16
-2.0899999 1.51 0.25999999
-2.0899999 1.51 0.36000001
-2.0899999 1.51 0.46000001
-2.0899999 1.51 0.56
-2.0899999 1.51 0.66000003
-2.0899999 1.51 0.75999999
-2.0899999 1.51 0.86000001
-2.0899999 1.51 0.95999998
-2.0899999 1.51 1.0599999
-1.99 1.41 -0.94
-1.99 1.41 -0.83999997
-1.99 1.41 -0.74000001
-1.99 1.41 -0.63999999
-1.99 1.41 -0.54000002
-1.99 1.41 -0.44
-1.99 1.41 -0.34
-1.99 1.41 -0.23999999
-1.99 1.41 -0.14
-1.99 1.41 -0.039999999
-1.99 1.41 0.059999999
-1.99 1.41 0.16
-1.99 1.41 0.25999999
-1.99 1.41 0.36000001
-1.99 1.41 0.46000001
-1.99 1.41 0.56
-1.99 1.41 0.66000003
-1.99 1.41 0.75999999
-1.99 1.41 0.86000001
-1.99 1.41 0.95999998
-1.99 1.41 1.0599999
-1.99 1.41 1.16
-1.99 1.41 1.26
-1.99 1.41 1.36
-1.99 1.41 1.46
-1.99 1.41 1.5599999
-1.99 1.41 1.66
-1.99 1.41 1.76
2.4100001 -2.49 -0.94
2.4100001 -2.49 -0.83999997
2.4100001 -2.49 -0.74000001
2.4100001 -2.49 -0.63999999
2.4100001 -2.49 -0.54000002
2.4100001 -2.49 -0.44
2.4100001 -2.49 -0.34
2.4100001 -2.49 -0.23999999
2.4100001 -2.49 -0.14
2.4100001 -2.49 -0.039999999
2.4100001 -2.49 0.059999999
2.4100001 -2.49 0.16
2.4100001 -2.49 0.25999999
2.4100001 -2.49 0.36000001
2.4100001 -2.49 0.46000001
2.4100001 -2.49 0.56
2.4100001 -2.49 0.66000003
2.4100001 -2.49 0.75999999
2.4100001 -2.49 0.86000001
2.4100001 -2.49 0.95999998
2.4100001 -2.49 1.0599999
2.4100001 -2.49 1.16
2.4100001 -2.49 1.26
-0.69 1.61 -0.94
-0.69 1.61 -0.83999997
-0.69 1.61 -0.74000001
-0.69 1.61 -0.63999999
-0.69 1.61 -0.54000002
-0.69 1.61 -0.44
-0.69 1.61 -0.34
-0.69 1.61 -0.23999999
-0.69 1.61 -0.14
-0.69 1.61 -0.039999999
-0.69 1.61 0.059999999
-0.69 1.61 0.16
-0.69 1.61 0.25999999
-0.69 1.61 0.36000001
-0.69 1.61 0.46000001
-0.69 1.61 0.56
-0.69 1.61 0.66000003
-0.69 1.61 0.75999999
-0.69 1.61 0.86000001
-0.69 1.61 0.95999998
-0.69 1.61 1.0599999
-0.69 1.61 1.16
-0.69 1.61 1.26
-0.69 1.61 1.36
-0.69 1.61 1.46
-0.69 1.61 1.5599999
-0.69 1.61 1.66
-0.69 1.61 1.76
-0.69 1.61 1.86
-0.69 1.61 1.96
-0.69 1.61 2.0599999
-0.69 1.61 2.1600001
-0.69 1.61 2.26
-0.69 1.61 2.3599999
-0.69 1.71 -0.94
-0.69 1.71 -0.83999997
-0.69 1.71 -0.74000001
-0.69 1.71 -0.63999999
-0.69 1.71 -0.54000002
-0.69 1.71 -0.44
-0.69 1.71 -0.34
-0.69 1.71 -0.23999999
-0.69 1.71 -0.14
-0.69 1.71 -0.039999999
-0.69 1.71 0.059999999
-0.69 1.71 0.16
-0.69 1.71 0.25999999
-0.69 1.71 0.36000001
-0.69 1.71 0.46000001
-0.69 1.71 0.56
-0.69 1.71 0.66000003
-0.69 1.71 0.75999999
-0.69 1.71 0.86000001
-0.69 1.71 0.95999998
-0.69 1.71 1.0599999
-0.69 1.71 1.16
-0.69 1.71 1.26
-0.69 1.71 1.36
-0.69 1.71 1.46
-0.69 1.71 1.5599999
-0.69 1.71 1.66
-0.69 1.71 1.76
-0.69 1.71 1.86
-0.69 1.71 1.96
-0.69 1.71 2.0599999
-0.69 1.71 2.1600001
-0.58999997 1.61 -0.94
-0.58999997 1.61 -0.83999997
-0.58999997 1.61 -0.74000001
-0.58999997 1.61 -0.63999999
-0.58999997 1.61 -0.54000002
-0.58999997 1.61 -0.44
-0.58999997 1.61 -0.34
-0.58999997 1.61 -0.23999999
-0.58999997 1.61 -0.14
-0.58999997 1.61 -0.039999999
-0.58999997 1.61 0.059999999
-0.58999997 1.61 0.16
-0.58999997 1.61 0.25999999
-0.58999997 1.61 0.36000001
-0.58999997 1.61 0.46000001
-0.58999997 1.61 0.56
-0.58999997 1.61 0.66000003
-0.58999997 1.61 0.75999999
-0.58999997 1.61 0.86000001
-0.58999997 1.61 0.95999998
-0.58999997 1.61 1.0599999
-0.58999997 1.61 1.16
-0.58999997 1.61 1.26
-0.58999997 1.61 1.36
-0.58999997 1.71 -0.94
-0.58999997 1.71 -0.83999997
-0.58999997 1.71 -0.74000001
-0.58999997 1.71 -0.63999999
-0.58999997 1.71 -0.54000002
-0.58999997 1.71 -0.44
-0.58999997 1.71 -0.34
-0.58999997 1.71 -0.23999999
-0.58999997 1.71 -0.14
-0.58999997 1.71 -0.039999999
-0.58999997 1.71 0.059999999
-0.58999997 1.71 0.16
-0.58999997 1.71 0.25999999
-0.58999997 1.71 0.36000001
-0.58999997 1.71 0.46000001
-0.58999997 1.71 0.56
-0.58999997 1.71 0.66000003
-0.58999997 1.71 0.75999999
-0.58999997 1.71 0.86000001
-0.58999997 1.71 0.95999998
1.51 2.21 -0.94
1.51 2.21 -0.83999997
1.51 2.21 -0.74000001
1.51 2.21 -0.63999999
1.51 2.21 -0.54000002
1.51 2.21 -0.44
1.51 2.21 -0.34
1.51 2.21 -0.23999999
1.51 2.21 -0.14
1.51 2.21 -0.039999999
1.51 2.21 0.059999999
1.51 2.21 0.16
1.51 2.21 0.25999999
1.51 2.21 0.36000001
1.51 2.21 0.46000001
1.51 2.21 0.56
1.51 2.21 0.66000003
1.51 2.21 0.75999999
1.51 2.21 0.86000001
1.51 2.21 0.95999998
1.51 2.21 1.0599999
1.51 2.21 1.16
1.51 2.21 1.26
1.51 2.21 1.36
1.51 2.21 1.46
1.51 2.21 1.5599999
1.51 2.21 1.66
1.51 2.21 1.76
1.51 2.21 1.86
1.51 2.21 1.96
1.51 2.21 2.0599999
1.51 2.3099999 -0.94
1.51 2.3099999 -0.83999997
1.51 2.3099999 -0.74000001
1.51 2.3099999 -0.63999999
1.51 2.3099999 -0.54000002
1.51 2.3099999 -0.44
1.51 2.3099999 -0.34
1.51 2.3099999 -0.23999999
1.51 2.3099999 -0.14
1.51 2.3099999 -0.039999999
1.51 2.3099999 0.059999999
1.51 2.3099999 0.16
1.51 2.3099999 0.25999999
1.51 2.3099999 0.36000001
1.51 2.3099999 0.46000001
1.51 2.3099999 0.56
1.51 2.3099999 0.66000003
1.51 2.3099999 0.75999999
1.51 2.3099999 0.86000001
1.51 2.3099999 0.95999998
1.51 2.3099999 1.0599999
1.51 2.3099999 1.16
1.51 2.3099999 1.26
1.51 2.3099999 1.36
1.51 2.3099999 1.46
1.51 2.3099999 1.5599999
1.51 2.3099999 1.66
1.51 2.3099999 1.76
1.51 2.3099999 1.86
1.51 2.3099999 1.96
1.51 2.3099999 2.0599999
1.51 2.3099999 2.1600001
1.61 2.21 -0.94
1.61 2.21 -0.83999997
1.61 2.21 -0.74000001
